# .PCD v0.7 - Point Cloud Data file format
VERSION 0.7
FIELDS x y z rgb
SIZE 4 4 4 4
TYPE F F F F
COUNT 1 1 1 1
WIDTH 1091
HEIGHT 1
POINTS 1091
DATA ascii
11.622000 -1.313000 -1.732000 53.0 66.0 75.0
11.617000 -1.275000 -1.731000 66.0 70.0 85.0
11.631000 -1.240000 -1.732000 55.0 65.0 78.0
11.613000 -1.201000 -1.729000 62.0 75.0 86.0
11.620000 -1.165000 -1.729000 64.0 63.0 79.0
11.579000 -1.124000 -1.722000 58.0 67.0 90.0
11.577000 -1.105000 -1.721000 61.0 71.0 79.0
11.568000 -1.068000 -1.720000 63.0 69.0 86.0
11.570000 -1.031000 -1.719000 62.0 71.0 99.0
11.575000 -0.995000 -1.720000 57.0 69.0 78.0
11.564000 -0.958000 -1.717000 54.0 61.0 74.0
11.575000 -0.922000 -1.719000 52.0 64.0 72.0
11.582000 -0.904000 -1.720000 51.0 56.0 75.0
11.583000 -0.868000 -1.719000 44.0 55.0 66.0
11.584000 -0.831000 -1.719000 46.0 63.0 69.0
11.580000 -0.794000 -1.718000 49.0 54.0 76.0
11.579000 -0.758000 -1.717000 46.0 58.0 72.0
11.585000 -0.722000 -1.718000 50.0 50.0 73.0
11.591000 -0.685000 -1.719000 47.0 59.0 75.0
11.586000 -0.667000 -1.718000 51.0 64.0 76.0
11.596000 -0.631000 -1.719000 47.0 58.0 74.0
11.584000 -0.594000 -1.717000 48.0 57.0 78.0
11.594000 -0.558000 -1.718000 53.0 63.0 72.0
11.582000 -0.521000 -1.716000 52.0 58.0 70.0
11.576000 -0.484000 -1.715000 51.0 60.0 70.0
11.583000 -0.448000 -1.716000 57.0 61.0 76.0
11.601000 -0.430000 -1.718000 62.0 57.0 85.0
11.581000 -0.393000 -1.715000 59.0 65.0 82.0
11.602000 -0.357000 -1.718000 59.0 72.0 88.0
11.589000 -0.321000 -1.716000 55.0 69.0 86.0
11.594000 -0.284000 -1.716000 60.0 85.0 114.0
11.593000 -0.248000 -1.716000 57.0 93.0 123.0
11.582000 -0.229000 -1.714000 57.0 88.0 121.0
11.592000 -0.193000 -1.716000 59.0 88.0 116.0
11.583000 -0.157000 -1.714000 50.0 83.0 102.0
11.597000 -0.120000 -1.716000 40.0 71.0 85.0
11.582000 -0.084000 -1.714000 52.0 68.0 88.0
11.603000 -0.047000 -1.717000 50.0 62.0 87.0
11.594000 -0.011000 -1.716000 46.0 61.0 86.0
10.959000 0.024000 -1.723000 61.0 72.0 88.0
10.953000 0.058000 -1.722000 61.0 76.0 97.0
10.956000 0.092000 -1.723000 67.0 83.0 102.0
10.964000 0.110000 -1.724000 71.0 87.0 106.0
10.964000 0.144000 -1.724000 73.0 94.0 110.0
10.971000 0.179000 -1.725000 74.0 90.0 103.0
10.982000 0.213000 -1.727000 81.0 94.0 110.0
10.972000 0.248000 -1.726000 69.0 88.0 97.0
10.967000 0.282000 -1.725000 72.0 79.0 101.0
10.980000 0.300000 -1.727000 56.0 60.0 73.0
10.971000 0.334000 -1.726000 53.0 57.0 73.0
10.972000 0.368000 -1.726000 53.0 61.0 72.0
10.967000 0.403000 -1.726000 51.0 66.0 81.0
10.976000 0.438000 -1.727000 55.0 65.0 79.0
10.980000 0.472000 -1.728000 61.0 59.0 71.0
10.980000 0.507000 -1.729000 50.0 57.0 70.0
10.995000 0.525000 -1.731000 46.0 59.0 69.0
10.972000 0.558000 -1.728000 48.0 56.0 70.0
10.988000 0.594000 -1.731000 58.0 57.0 70.0
10.980000 0.628000 -1.730000 50.0 56.0 73.0
10.986000 0.663000 -1.731000 54.0 56.0 67.0
10.984000 0.697000 -1.731000 45.0 56.0 73.0
11.005000 0.733000 -1.735000 58.0 63.0 71.0
10.984000 0.749000 -1.732000 57.0 59.0 73.0
10.984000 0.784000 -1.732000 48.0 60.0 68.0
10.991000 0.819000 -1.734000 56.0 64.0 80.0
11.002000 0.855000 -1.736000 54.0 63.0 83.0
11.002000 0.889000 -1.736000 52.0 63.0 75.0
10.997000 0.924000 -1.736000 52.0 57.0 69.0
11.011000 0.942000 -1.739000 49.0 55.0 77.0
11.002000 0.976000 -1.738000 42.0 56.0 67.0
11.013000 1.012000 -1.740000 50.0 55.0 73.0
10.994000 1.045000 -1.737000 47.0 54.0 74.0
10.990000 1.080000 -1.737000 51.0 51.0 73.0
11.007000 1.116000 -1.741000 49.0 51.0 73.0
11.007000 1.151000 -1.741000 42.0 55.0 73.0
11.003000 1.168000 -1.741000 42.0 55.0 64.0
10.988000 1.202000 -1.739000 42.0 53.0 71.0
10.988000 1.237000 -1.740000 45.0 53.0 65.0
10.986000 1.271000 -1.740000 44.0 53.0 70.0
10.990000 1.307000 -1.741000 44.0 56.0 81.0
10.991000 1.342000 -1.742000 44.0 59.0 72.0
10.985000 1.376000 -1.742000 46.0 64.0 80.0
11.006000 1.397000 -1.746000 50.0 64.0 77.0
11.012000 1.432000 -1.747000 61.0 66.0 77.0
10.997000 1.466000 -1.746000 53.0 66.0 81.0
11.016000 1.503000 -1.750000 51.0 65.0 76.0
11.002000 1.537000 -1.748000 52.0 59.0 72.0
11.003000 1.572000 -1.749000 47.0 58.0 75.0
11.004000 1.607000 -1.750000 48.0 58.0 58.0
11.013000 1.626000 -1.752000 48.0 59.0 79.0
11.009000 1.661000 -1.752000 57.0 57.0 50.0
11.014000 1.697000 -1.754000 55.0 65.0 75.0
11.016000 1.733000 -1.755000 53.0 66.0 79.0
11.028000 1.771000 -1.758000 58.0 67.0 79.0
11.034000 1.807000 -1.760000 64.0 69.0 82.0
11.034000 1.825000 -1.761000 64.0 68.0 91.0
11.034000 1.860000 -1.762000 74.0 73.0 85.0
11.039000 1.897000 -1.764000 73.0 73.0 87.0
11.047000 1.934000 -1.766000 59.0 71.0 80.0
11.049000 1.970000 -1.767000 69.0 75.0 83.0
11.068000 2.009000 -1.772000 71.0 75.0 76.0
11.063000 2.044000 -1.772000 67.0 65.0 55.0
11.074000 2.064000 -1.774000 63.0 68.0 71.0
11.071000 2.100000 -1.775000 60.0 70.0 81.0
11.080000 2.137000 -1.778000 69.0 73.0 77.0
11.085000 2.175000 -1.780000 73.0 76.0 73.0
11.085000 2.211000 -1.781000 72.0 78.0 85.0
11.094000 2.249000 -1.784000 78.0 86.0 93.0
11.102000 2.287000 -1.786000 91.0 91.0 90.0
11.104000 2.305000 -1.787000 94.0 88.0 86.0
11.091000 2.339000 -1.786000 108.0 85.0 83.0
11.097000 2.377000 -1.789000 89.0 81.0 96.0
11.098000 2.413000 -1.790000 64.0 69.0 73.0
11.111000 2.453000 -1.794000 64.0 67.0 65.0
11.125000 2.492000 -1.797000 69.0 69.0 72.0
11.132000 2.531000 -1.800000 77.0 70.0 76.0
11.124000 2.547000 -1.799000 77.0 66.0 74.0
11.130000 2.585000 -1.802000 63.0 57.0 60.0
11.139000 2.624000 -1.805000 70.0 71.0 70.0
11.146000 2.663000 -1.807000 62.0 66.0 71.0
11.130000 2.696000 -1.806000 65.0 71.0 75.0
11.152000 2.739000 -1.811000 60.0 63.0 73.0
11.165000 2.760000 -1.814000 58.0 65.0 69.0
11.166000 2.798000 -1.816000 63.0 68.0 63.0
11.185000 2.840000 -1.821000 64.0 68.0 84.0
11.184000 2.877000 -1.822000 54.0 59.0 80.0
11.146000 2.905000 -1.817000 51.0 62.0 65.0
11.160000 2.946000 -1.821000 54.0 63.0 66.0
11.178000 2.988000 -1.826000 54.0 68.0 67.0
11.198000 3.012000 -1.830000 59.0 64.0 66.0
11.205000 3.052000 -1.833000 46.0 51.0 58.0
11.211000 3.091000 -1.836000 73.0 60.0 52.0
11.218000 3.131000 -1.839000 50.0 47.0 50.0
11.425000 3.227000 -1.877000 50.0 55.0 55.0
7.608000 2.184000 -1.210000 53.0 51.0 49.0
7.562000 2.196000 -1.203000 38.0 35.0 49.0
7.503000 2.192000 -1.193000 22.0 27.0 34.0
7.498000 2.216000 -1.193000 21.0 23.0 33.0
7.451000 2.228000 -1.186000 20.0 21.0 28.0
7.446000 2.252000 -1.187000 17.0 22.0 28.0
7.351000 2.249000 -1.171000 20.0 19.0 25.0
7.225000 2.236000 -1.150000 23.0 25.0 40.0
7.204000 2.254000 -1.148000 20.0 22.0 31.0
6.984000 2.198000 -1.110000 29.0 31.0 33.0
6.840000 2.177000 -1.085000 26.0 27.0 32.0
6.805000 2.189000 -1.080000 37.0 32.0 40.0
6.770000 2.202000 -1.075000 19.0 24.0 35.0
6.742000 2.216000 -1.072000 21.0 23.0 26.0
6.745000 2.241000 -1.073000 26.0 28.0 33.0
6.756000 2.256000 -1.076000 26.0 29.0 37.0
6.740000 2.274000 -1.074000 19.0 24.0 28.0
6.738000 2.297000 -1.075000 19.0 15.0 22.0
6.580000 2.267000 -1.048000 13.0 16.0 24.0
6.418000 2.234000 -1.021000 15.0 18.0 19.0
6.211000 2.185000 -0.985000 14.0 15.0 19.0
6.167000 2.192000 -0.978000 14.0 20.0 22.0
6.084000 2.173000 -0.964000 21.0 24.0 23.0
6.028000 2.175000 -0.956000 25.0 25.0 27.0
5.973000 2.177000 -0.947000 28.0 30.0 38.0
5.907000 2.174000 -0.936000 25.0 27.0 35.0
5.858000 2.177000 -0.929000 15.0 18.0 31.0
5.801000 2.177000 -0.920000 28.0 29.0 35.0
5.720000 2.167000 -0.906000 22.0 28.0 37.0
5.691000 2.167000 -0.902000 21.0 26.0 34.0
5.701000 2.191000 -0.905000 25.0 23.0 31.0
5.596000 2.171000 -0.887000 26.0 28.0 33.0
5.575000 2.183000 -0.884000 25.0 28.0 35.0
5.516000 2.181000 -0.875000 24.0 23.0 31.0
5.342000 2.132000 -0.845000 22.0 23.0 29.0
5.323000 2.134000 -0.842000 23.0 23.0 30.0
5.321000 2.153000 -0.843000 16.0 21.0 15.0
5.305000 2.166000 -0.841000 20.0 23.0 25.0
5.302000 2.184000 -0.842000 43.0 53.0 59.0
5.295000 2.201000 -0.842000 49.0 61.0 69.0
5.288000 2.217000 -0.842000 49.0 59.0 69.0
5.287000 2.236000 -0.843000 48.0 52.0 60.0
5.296000 2.250000 -0.845000 53.0 52.0 60.0
5.289000 2.266000 -0.845000 36.0 37.0 47.0
5.291000 2.287000 -0.847000 35.0 36.0 47.0
5.300000 2.311000 -0.850000 28.0 35.0 38.0
5.284000 2.323000 -0.848000 30.0 34.0 37.0
5.289000 2.345000 -0.850000 30.0 33.0 42.0
5.289000 2.365000 -0.852000 30.0 28.0 37.0
5.289000 2.375000 -0.852000 28.0 29.0 38.0
5.299000 2.400000 -0.856000 28.0 27.0 32.0
5.293000 2.417000 -0.856000 24.0 25.0 26.0
5.289000 2.435000 -0.857000 23.0 27.0 35.0
5.284000 2.453000 -0.857000 22.0 25.0 27.0
5.303000 2.482000 -0.862000 21.0 32.0 35.0
5.284000 2.484000 -0.859000 34.0 30.0 29.0
5.239000 2.483000 -0.852000 24.0 27.0 33.0
4.646000 2.223000 -0.743000 18.0 17.0 18.0
4.511000 2.176000 -0.719000 14.0 14.0 15.0
4.529000 2.202000 -0.724000 18.0 23.0 26.0
4.545000 2.228000 -0.728000 11.0 14.0 17.0
4.524000 2.235000 -0.726000 23.0 33.0 35.0
4.533000 2.248000 -0.728000 23.0 46.0 52.0
4.535000 2.267000 -0.730000 13.0 13.0 23.0
4.536000 2.286000 -0.731000 12.0 12.0 14.0
4.542000 2.306000 -0.734000 12.0 10.0 10.0
4.552000 2.329000 -0.737000 13.0 11.0 13.0
4.537000 2.340000 -0.736000 3.0 9.0 14.0
4.535000 2.357000 -0.737000 12.0 10.0 12.0
4.537000 2.367000 -0.738000 11.0 9.0 11.0
4.536000 2.385000 -0.739000 9.0 9.0 14.0
4.543000 2.406000 -0.742000 11.0 11.0 10.0
4.558000 2.432000 -0.746000 11.0 11.0 15.0
4.547000 2.445000 -0.745000 12.0 11.0 16.0
4.543000 2.461000 -0.746000 11.0 8.0 15.0
4.554000 2.476000 -0.749000 8.0 7.0 12.0
4.555000 2.495000 -0.751000 3.0 7.0 9.0
4.549000 2.511000 -0.751000 9.0 9.0 12.0
4.546000 2.528000 -0.752000 14.0 7.0 9.0
4.554000 2.551000 -0.755000 10.0 12.0 1.0
4.555000 2.570000 -0.757000 11.0 10.0 16.0
4.559000 2.591000 -0.759000 11.0 11.0 10.0
4.554000 2.598000 -0.759000 11.0 9.0 17.0
4.558000 2.619000 -0.761000 7.0 9.0 10.0
4.360000 2.525000 -0.724000 9.0 9.0 11.0
4.617000 2.691000 -0.776000 12.0 9.0 10.0
3.614000 2.128000 -0.582000 12.0 9.0 8.0
3.609000 2.141000 -0.582000 11.0 8.0 7.0
3.573000 2.135000 -0.577000 8.0 8.0 16.0
3.582000 2.147000 -0.579000 9.0 10.0 10.0
3.599000 2.173000 -0.584000 5.0 6.0 8.0
3.617000 2.199000 -0.589000 13.0 24.0 31.0
3.587000 2.196000 -0.584000 47.0 48.0 54.0
3.592000 2.215000 -0.586000 28.0 27.0 37.0
3.580000 2.223000 -0.585000 14.0 20.0 31.0
3.585000 2.234000 -0.587000 12.0 20.0 34.0
3.598000 2.258000 -0.591000 15.0 18.0 27.0
3.586000 2.266000 -0.590000 16.0 21.0 31.0
3.592000 2.285000 -0.593000 20.0 22.0 27.0
3.591000 2.301000 -0.594000 17.0 22.0 35.0
3.577000 2.323000 -0.594000 18.0 16.0 30.0
3.557000 2.318000 -0.591000 20.0 18.0 26.0
3.543000 2.325000 -0.589000 11.0 21.0 25.0
3.504000 2.316000 -0.583000 14.0 18.0 29.0
3.497000 2.327000 -0.583000 13.0 18.0 27.0
3.463000 2.320000 -0.578000 10.0 15.0 24.0
3.447000 2.326000 -0.576000 5.0 19.0 30.0
3.437000 2.334000 -0.575000 34.0 47.0 65.0
3.412000 2.326000 -0.571000 37.0 50.0 67.0
3.392000 2.327000 -0.568000 45.0 57.0 75.0
3.383000 2.337000 -0.568000 42.0 64.0 85.0
3.354000 2.333000 -0.564000 46.0 65.0 86.0
3.324000 2.328000 -0.559000 47.0 63.0 78.0
3.320000 2.341000 -0.560000 48.0 63.0 90.0
3.303000 2.337000 -0.557000 48.0 69.0 93.0
3.296000 2.347000 -0.557000 51.0 67.0 78.0
3.268000 2.343000 -0.553000 51.0 66.0 88.0
3.247000 2.344000 -0.550000 44.0 65.0 88.0
3.258000 2.367000 -0.554000 53.0 69.0 98.0
3.257000 2.381000 -0.555000 53.0 72.0 93.0
3.228000 2.377000 -0.551000 53.0 68.0 90.0
3.223000 2.380000 -0.550000 56.0 70.0 84.0
3.223000 2.396000 -0.552000 47.0 69.0 89.0
3.148000 2.356000 -0.538000 50.0 69.0 77.0
3.245000 2.444000 -0.560000 51.0 68.0 95.0
3.210000 2.434000 -0.554000 48.0 74.0 92.0
3.204000 2.445000 -0.554000 58.0 83.0 89.0
3.193000 2.453000 -0.554000 92.0 134.0 146.0
3.207000 2.471000 -0.557000 115.0 150.0 159.0
3.205000 2.486000 -0.559000 112.0 132.0 159.0
3.205000 2.502000 -0.560000 86.0 119.0 140.0
3.225000 2.534000 -0.566000 100.0 105.0 124.0
3.220000 2.546000 -0.567000 84.0 98.0 115.0
3.205000 2.550000 -0.565000 28.0 20.0 48.0
6.706000 -5.428000 -1.330000 31.0 39.0 52.0
6.723000 -5.407000 -1.330000 32.0 45.0 61.0
6.747000 -5.392000 -1.331000 32.0 45.0 57.0
6.773000 -5.395000 -1.335000 33.0 48.0 54.0
6.787000 -5.371000 -1.334000 33.0 44.0 57.0
6.805000 -5.351000 -1.335000 27.0 49.0 63.0
6.844000 -5.347000 -1.339000 34.0 34.0 48.0
6.856000 -5.322000 -1.338000 35.0 46.0 54.0
6.883000 -5.309000 -1.341000 33.0 41.0 51.0
6.911000 -5.296000 -1.343000 37.0 40.0 46.0
6.916000 -5.282000 -1.342000 31.0 39.0 53.0
6.939000 -5.265000 -1.344000 32.0 39.0 55.0
6.965000 -5.251000 -1.346000 32.0 43.0 55.0
6.981000 -5.229000 -1.346000 34.0 43.0 52.0
7.005000 -5.213000 -1.347000 35.0 43.0 56.0
7.034000 -5.200000 -1.350000 31.0 46.0 53.0
7.048000 -5.176000 -1.349000 35.0 42.0 60.0
7.060000 -5.168000 -1.350000 32.0 42.0 60.0
7.094000 -5.159000 -1.354000 39.0 48.0 65.0
7.106000 -5.133000 -1.353000 26.0 37.0 49.0
7.138000 -5.122000 -1.356000 32.0 47.0 56.0
7.157000 -5.102000 -1.357000 34.0 46.0 74.0
7.171000 -5.078000 -1.357000 31.0 48.0 65.0
7.199000 -5.081000 -1.361000 35.0 49.0 68.0
7.216000 -5.059000 -1.361000 35.0 46.0 59.0
7.235000 -5.039000 -1.362000 33.0 48.0 57.0
7.262000 -5.024000 -1.364000 32.0 44.0 56.0
7.278000 -5.001000 -1.364000 32.0 46.0 59.0
7.299000 -4.981000 -1.365000 28.0 45.0 47.0
7.316000 -4.960000 -1.365000 27.0 43.0 56.0
7.335000 -4.956000 -1.368000 33.0 43.0 58.0
7.356000 -4.936000 -1.369000 35.0 38.0 52.0
7.376000 -4.916000 -1.370000 26.0 43.0 48.0
7.401000 -4.900000 -1.372000 32.0 42.0 57.0
7.402000 -4.867000 -1.369000 35.0 45.0 56.0
7.435000 -4.855000 -1.372000 34.0 48.0 62.0
7.443000 -4.844000 -1.372000 33.0 48.0 62.0
7.466000 -4.826000 -1.374000 34.0 46.0 65.0
7.491000 -4.808000 -1.376000 35.0 47.0 64.0
7.510000 -4.787000 -1.377000 30.0 44.0 62.0
7.523000 -4.762000 -1.376000 33.0 46.0 60.0
7.546000 -4.744000 -1.378000 31.0 47.0 69.0
7.574000 -4.729000 -1.381000 43.0 49.0 65.0
7.592000 -4.723000 -1.383000 37.0 48.0 60.0
7.613000 -4.703000 -1.384000 36.0 46.0 55.0
7.635000 -4.683000 -1.385000 50.0 56.0 76.0
7.648000 -4.658000 -1.385000 37.0 52.0 66.0
7.671000 -4.640000 -1.387000 36.0 45.0 65.0
7.699000 -4.624000 -1.389000 34.0 47.0 70.0
7.718000 -4.602000 -1.390000 42.0 53.0 64.0
7.734000 -4.595000 -1.392000 40.0 55.0 69.0
7.752000 -4.573000 -1.393000 39.0 56.0 71.0
7.775000 -4.554000 -1.394000 37.0 54.0 78.0
7.804000 -4.538000 -1.397000 43.0 58.0 71.0
7.832000 -4.522000 -1.400000 39.0 59.0 73.0
7.848000 -4.498000 -1.400000 31.0 55.0 72.0
7.867000 -4.476000 -1.401000 39.0 53.0 70.0
7.885000 -4.470000 -1.403000 41.0 55.0 75.0
7.905000 -4.449000 -1.405000 48.0 43.0 60.0
7.935000 -4.433000 -1.408000 36.0 41.0 58.0
7.959000 -4.413000 -1.410000 38.0 51.0 72.0
7.978000 -4.391000 -1.411000 42.0 50.0 60.0
8.007000 -4.375000 -1.414000 51.0 57.0 76.0
8.033000 -4.373000 -1.417000 40.0 56.0 81.0
8.056000 -4.352000 -1.419000 42.0 61.0 89.0
8.073000 -4.329000 -1.420000 37.0 44.0 55.0
8.104000 -4.313000 -1.423000 28.0 31.0 35.0
8.108000 -4.282000 -1.421000 24.0 31.0 33.0
8.153000 -4.274000 -1.427000 21.0 28.0 34.0
8.151000 -4.240000 -1.424000 24.0 26.0 44.0
8.172000 -4.234000 -1.427000 24.0 32.0 32.0
8.211000 -4.222000 -1.432000 29.0 27.0 33.0
8.240000 -4.204000 -1.435000 28.0 35.0 29.0
8.236000 -4.169000 -1.432000 24.0 26.0 31.0
8.261000 -4.150000 -1.434000 22.0 29.0 33.0
8.308000 -4.141000 -1.440000 29.0 36.0 44.0
8.319000 -4.114000 -1.440000 30.0 44.0 53.0
8.350000 -4.113000 -1.444000 26.0 46.0 53.0
8.373000 -4.092000 -1.446000 27.0 32.0 29.0
8.390000 -4.067000 -1.447000 37.0 40.0 46.0
8.420000 -4.049000 -1.450000 36.0 48.0 47.0
8.444000 -4.028000 -1.452000 47.0 43.0 50.0
8.471000 -4.008000 -1.455000 39.0 51.0 59.0
8.525000 -4.018000 -1.464000 35.0 51.0 60.0
8.589000 -4.015000 -1.474000 33.0 43.0 54.0
8.659000 -4.015000 -1.484000 40.0 51.0 54.0
8.723000 -4.012000 -1.494000 41.0 55.0 52.0
8.790000 -4.009000 -1.504000 41.0 52.0 47.0
8.860000 -4.008000 -1.515000 43.0 61.0 90.0
8.926000 -4.004000 -1.525000 50.0 58.0 68.0
8.981000 -4.012000 -1.534000 49.0 60.0 69.0
9.008000 -3.990000 -1.536000 35.0 44.0 56.0
8.993000 -3.950000 -1.531000 35.0 49.0 69.0
8.997000 -3.918000 -1.530000 49.0 38.0 48.0
9.049000 -3.907000 -1.537000 35.0 52.0 76.0
9.097000 -3.894000 -1.544000 33.0 44.0 58.0
9.079000 -3.852000 -1.538000 35.0 49.0 61.0
9.097000 -3.843000 -1.540000 45.0 50.0 64.0
8.928000 -3.738000 -1.507000 42.0 44.0 47.0
8.747000 -3.629000 -1.472000 39.0 45.0 45.0
8.745000 -3.597000 -1.469000 38.0 41.0 50.0
8.738000 -3.562000 -1.466000 32.0 35.0 38.0
8.747000 -3.533000 -1.466000 21.0 28.0 36.0
8.749000 -3.518000 -1.465000 24.0 28.0 34.0
8.795000 -3.505000 -1.471000 26.0 30.0 23.0
8.901000 -3.515000 -1.489000 26.0 33.0 35.0
8.984000 -3.515000 -1.502000 19.0 31.0 27.0
9.135000 -3.541000 -1.527000 24.0 29.0 32.0
9.370000 -3.600000 -1.568000 25.0 30.0 35.0
9.363000 -3.563000 -1.564000 23.0 30.0 32.0
9.348000 -3.541000 -1.561000 26.0 28.0 39.0
9.413000 -3.531000 -1.570000 25.0 25.0 33.0
9.424000 -3.502000 -1.570000 24.0 24.0 28.0
9.433000 -3.472000 -1.570000 25.0 24.0 25.0
9.453000 -3.445000 -1.572000 24.0 25.0 30.0
9.464000 -3.416000 -1.572000 24.0 26.0 34.0
9.471000 -3.384000 -1.571000 19.0 26.0 24.0
9.496000 -3.377000 -1.575000 22.0 24.0 24.0
9.514000 -3.350000 -1.576000 19.0 20.0 22.0
9.518000 -3.317000 -1.575000 23.0 22.0 26.0
9.509000 -3.281000 -1.571000 17.0 18.0 22.0
9.536000 -3.257000 -1.574000 17.0 21.0 20.0
9.571000 -3.235000 -1.579000 13.0 15.0 21.0
9.590000 -3.208000 -1.580000 14.0 20.0 17.0
9.595000 -3.193000 -1.580000 18.0 16.0 18.0
9.609000 -3.164000 -1.581000 15.0 15.0 17.0
9.617000 -3.133000 -1.581000 17.0 18.0 17.0
8.815000 -2.839000 -1.436000 10.0 14.0 13.0
8.780000 -2.797000 -1.429000 15.0 13.0 23.0
8.723000 -2.749000 -1.417000 15.0 15.0 16.0
8.696000 -2.725000 -1.412000 12.0 12.0 15.0
8.702000 -2.697000 -1.411000 16.0 12.0 12.0
9.668000 -2.966000 -1.580000 13.0 16.0 16.0
9.702000 -2.943000 -1.585000 13.0 11.0 18.0
9.777000 -2.933000 -1.596000 11.0 15.0 17.0
8.486000 -2.513000 -1.367000 11.0 9.0 17.0
8.545000 -2.501000 -1.376000 11.0 10.0 18.0
8.587000 -2.499000 -1.383000 8.0 11.0 13.0
8.638000 -2.485000 -1.391000 12.0 10.0 14.0
8.534000 -2.425000 -1.371000 10.0 8.0 15.0
8.445000 -2.371000 -1.354000 12.0 11.0 10.0
8.456000 -2.346000 -1.355000 12.0 11.0 13.0
8.441000 -2.313000 -1.351000 10.0 8.0 14.0
8.454000 -2.288000 -1.352000 11.0 11.0 15.0
8.461000 -2.275000 -1.352000 8.0 11.0 14.0
8.460000 -2.247000 -1.351000 10.0 12.0 14.0
8.467000 -2.220000 -1.351000 13.0 14.0 14.0
8.478000 -2.195000 -1.352000 12.0 9.0 13.0
8.477000 -2.166000 -1.350000 13.0 12.0 18.0
8.492000 -2.141000 -1.352000 14.0 9.0 17.0
8.539000 -2.125000 -1.359000 22.0 15.0 14.0
8.598000 -2.125000 -1.368000 13.0 15.0 17.0
8.633000 -2.105000 -1.373000 10.0 9.0 17.0
8.739000 -2.102000 -1.391000 12.0 13.0 13.0
8.795000 -2.087000 -1.399000 12.0 12.0 16.0
8.919000 -2.087000 -1.420000 12.0 11.0 12.0
9.047000 -2.087000 -1.440000 7.0 12.0 17.0
9.228000 -2.115000 -1.471000 8.0 13.0 18.0
10.185000 -2.303000 -1.636000 16.0 18.0 21.0
10.277000 -2.290000 -1.650000 41.0 37.0 35.0
10.305000 -2.262000 -1.654000 36.0 44.0 41.0
10.308000 -2.229000 -1.653000 46.0 62.0 57.0
10.336000 -2.201000 -1.657000 49.0 62.0 78.0
10.355000 -2.171000 -1.659000 45.0 51.0 52.0
10.374000 -2.158000 -1.662000 41.0 57.0 61.0
10.402000 -2.130000 -1.665000 38.0 49.0 76.0
10.420000 -2.100000 -1.667000 50.0 59.0 46.0
10.444000 -2.070000 -1.670000 30.0 44.0 49.0
10.477000 -2.043000 -1.675000 37.0 68.0 93.0
10.489000 -2.011000 -1.676000 44.0 66.0 102.0
10.498000 -1.979000 -1.676000 44.0 55.0 74.0
10.524000 -1.966000 -1.680000 49.0 54.0 64.0
10.526000 -1.933000 -1.680000 37.0 45.0 36.0
10.563000 -1.905000 -1.685000 47.0 47.0 58.0
10.604000 -1.878000 -1.691000 43.0 61.0 67.0
10.629000 -1.848000 -1.694000 38.0 42.0 36.0
10.627000 -1.814000 -1.693000 40.0 58.0 65.0
10.638000 -1.798000 -1.694000 42.0 54.0 68.0
10.694000 -1.773000 -1.703000 42.0 52.0 47.0
10.727000 -1.744000 -1.708000 37.0 50.0 64.0
10.752000 -1.714000 -1.711000 41.0 57.0 61.0
10.769000 -1.682000 -1.713000 55.0 58.0 65.0
10.741000 -1.643000 -1.707000 48.0 53.0 75.0
10.768000 -1.612000 -1.711000 42.0 45.0 42.0
10.807000 -1.601000 -1.717000 39.0 45.0 40.0
10.818000 -1.568000 -1.718000 37.0 35.0 43.0
10.840000 -1.536000 -1.721000 44.0 42.0 56.0
10.869000 -1.506000 -1.725000 49.0 55.0 64.0
10.926000 -1.479000 -1.734000 47.0 54.0 69.0
10.950000 -1.447000 -1.738000 54.0 58.0 77.0
10.958000 -1.431000 -1.739000 56.0 61.0 69.0
10.928000 -1.392000 -1.733000 53.0 59.0 73.0
10.940000 -1.358000 -1.734000 48.0 53.0 64.0
10.944000 -1.324000 -1.734000 54.0 58.0 70.0
10.924000 -1.287000 -1.730000 51.0 53.0 66.0
10.919000 -1.251000 -1.728000 51.0 56.0 70.0
10.905000 -1.215000 -1.725000 59.0 59.0 72.0
10.909000 -1.198000 -1.726000 57.0 60.0 61.0
10.903000 -1.163000 -1.724000 60.0 66.0 72.0
10.902000 -1.128000 -1.723000 71.0 65.0 74.0
10.906000 -1.094000 -1.723000 59.0 70.0 75.0
10.907000 -1.059000 -1.723000 62.0 71.0 88.0
10.905000 -1.024000 -1.722000 65.0 82.0 82.0
10.927000 -0.992000 -1.725000 57.0 69.0 82.0
10.925000 -0.974000 -1.725000 59.0 68.0 82.0
10.924000 -0.940000 -1.724000 55.0 70.0 78.0
10.931000 -0.906000 -1.725000 51.0 63.0 77.0
10.942000 -0.872000 -1.726000 50.0 62.0 69.0
10.938000 -0.837000 -1.725000 45.0 56.0 76.0
10.943000 -0.803000 -1.725000 48.0 56.0 71.0
10.928000 -0.785000 -1.723000 46.0 57.0 72.0
10.937000 -0.751000 -1.724000 30.0 51.0 64.0
10.929000 -0.716000 -1.722000 43.0 56.0 69.0
10.941000 -0.682000 -1.724000 49.0 53.0 67.0
10.932000 -0.647000 -1.722000 42.0 54.0 70.0
10.941000 -0.613000 -1.723000 49.0 57.0 72.0
10.941000 -0.579000 -1.723000 40.0 54.0 74.0
10.934000 -0.561000 -1.721000 40.0 54.0 70.0
10.924000 -0.526000 -1.719000 42.0 52.0 70.0
10.940000 -0.492000 -1.722000 39.0 54.0 72.0
10.931000 -0.458000 -1.720000 43.0 59.0 77.0
10.948000 -0.424000 -1.723000 46.0 54.0 77.0
10.938000 -0.389000 -1.721000 38.0 52.0 60.0
10.939000 -0.355000 -1.721000 36.0 60.0 71.0
10.947000 -0.338000 -1.722000 37.0 60.0 67.0
10.935000 -0.303000 -1.720000 44.0 59.0 70.0
10.914000 -0.268000 -1.716000 42.0 57.0 71.0
10.942000 -0.234000 -1.721000 41.0 53.0 73.0
10.959000 -0.200000 -1.723000 68.0 63.0 79.0
10.955000 -0.166000 -1.723000 52.0 58.0 73.0
10.952000 -0.131000 -1.722000 52.0 58.0 72.0
10.948000 -0.114000 -1.721000 37.0 56.0 76.0
10.964000 -0.080000 -1.724000 46.0 61.0 76.0
10.966000 -0.045000 -1.724000 51.0 60.0 75.0
10.957000 -0.011000 -1.723000 52.0 63.0 84.0
10.373000 0.017000 -1.716000 44.0 54.0 69.0
10.386000 0.050000 -1.718000 44.0 52.0 77.0
10.388000 0.066000 -1.718000 42.0 56.0 80.0
10.392000 0.099000 -1.719000 52.0 59.0 81.0
10.397000 0.132000 -1.720000 50.0 53.0 79.0
10.389000 0.164000 -1.719000 49.0 59.0 65.0
10.390000 0.197000 -1.719000 45.0 53.0 84.0
10.380000 0.229000 -1.717000 44.0 52.0 71.0
10.391000 0.246000 -1.719000 45.0 58.0 69.0
10.394000 0.279000 -1.720000 53.0 52.0 70.0
10.396000 0.311000 -1.720000 52.0 62.0 76.0
10.398000 0.344000 -1.721000 52.0 65.0 91.0
10.401000 0.377000 -1.722000 52.0 60.0 76.0
10.404000 0.410000 -1.723000 50.0 61.0 66.0
10.407000 0.443000 -1.723000 47.0 63.0 73.0
10.400000 0.459000 -1.722000 43.0 57.0 74.0
10.398000 0.491000 -1.722000 45.0 60.0 75.0
10.405000 0.525000 -1.724000 40.0 58.0 74.0
10.393000 0.557000 -1.722000 46.0 57.0 73.0
10.382000 0.589000 -1.720000 43.0 54.0 75.0
10.393000 0.622000 -1.723000 48.0 53.0 74.0
10.405000 0.656000 -1.725000 50.0 61.0 72.0
10.402000 0.672000 -1.725000 33.0 55.0 71.0
10.400000 0.705000 -1.725000 43.0 54.0 65.0
10.415000 0.739000 -1.728000 42.0 49.0 62.0
10.411000 0.771000 -1.727000 42.0 50.0 78.0
10.412000 0.804000 -1.728000 45.0 49.0 70.0
10.394000 0.836000 -1.725000 47.0 51.0 67.0
10.401000 0.869000 -1.727000 41.0 49.0 66.0
10.420000 0.887000 -1.731000 44.0 54.0 67.0
10.397000 0.918000 -1.727000 47.0 53.0 72.0
10.420000 0.953000 -1.732000 41.0 54.0 66.0
10.424000 0.987000 -1.733000 43.0 55.0 61.0
10.415000 1.019000 -1.732000 50.0 59.0 78.0
10.418000 1.052000 -1.733000 50.0 62.0 65.0
10.420000 1.069000 -1.734000 50.0 61.0 70.0
10.409000 1.101000 -1.732000 51.0 56.0 75.0
10.404000 1.133000 -1.732000 52.0 56.0 79.0
10.412000 1.167000 -1.734000 58.0 60.0 74.0
10.408000 1.200000 -1.734000 64.0 75.0 84.0
10.408000 1.233000 -1.735000 54.0 74.0 88.0
10.414000 1.267000 -1.737000 42.0 50.0 74.0
10.404000 1.282000 -1.735000 49.0 54.0 67.0
10.408000 1.316000 -1.737000 46.0 60.0 71.0
10.394000 1.347000 -1.735000 46.0 52.0 71.0
10.390000 1.380000 -1.735000 48.0 56.0 60.0
10.395000 1.414000 -1.737000 50.0 58.0 66.0
10.404000 1.449000 -1.739000 48.0 56.0 71.0
10.398000 1.481000 -1.739000 49.0 53.0 69.0
10.407000 1.499000 -1.741000 48.0 53.0 74.0
10.420000 1.534000 -1.744000 49.0 58.0 68.0
10.411000 1.567000 -1.743000 48.0 57.0 81.0
10.412000 1.600000 -1.744000 47.0 55.0 75.0
10.422000 1.635000 -1.747000 50.0 57.0 70.0
10.415000 1.668000 -1.747000 57.0 62.0 75.0
10.423000 1.703000 -1.749000 53.0 65.0 90.0
10.438000 1.722000 -1.752000 51.0 60.0 81.0
10.433000 1.755000 -1.752000 48.0 61.0 74.0
10.439000 1.790000 -1.754000 50.0 67.0 86.0
10.443000 1.824000 -1.756000 61.0 67.0 85.0
10.447000 1.859000 -1.758000 76.0 82.0 94.0
10.449000 1.893000 -1.759000 91.0 83.0 94.0
10.461000 1.912000 -1.762000 100.0 82.0 95.0
10.455000 1.945000 -1.762000 95.0 90.0 93.0
10.457000 1.979000 -1.763000 90.0 81.0 91.0
10.470000 2.016000 -1.767000 72.0 69.0 74.0
10.458000 2.048000 -1.766000 57.0 67.0 85.0
10.461000 2.083000 -1.768000 62.0 67.0 73.0
10.477000 2.120000 -1.772000 60.0 71.0 74.0
10.474000 2.137000 -1.772000 65.0 69.0 77.0
10.469000 2.170000 -1.772000 67.0 68.0 77.0
10.460000 2.202000 -1.772000 78.0 72.0 68.0
10.484000 2.242000 -1.777000 85.0 84.0 73.0
10.485000 2.276000 -1.779000 89.0 85.0 85.0
10.497000 2.314000 -1.782000 92.0 94.0 82.0
10.489000 2.347000 -1.782000 73.0 82.0 98.0
10.503000 2.367000 -1.785000 72.0 84.0 94.0
10.513000 2.404000 -1.789000 69.0 82.0 86.0
10.503000 2.437000 -1.788000 67.0 69.0 76.0
10.509000 2.473000 -1.791000 69.0 69.0 74.0
10.518000 2.510000 -1.794000 68.0 76.0 69.0
10.524000 2.546000 -1.796000 94.0 73.0 65.0
10.516000 2.579000 -1.796000 141.0 116.0 80.0
10.525000 2.599000 -1.799000 146.0 133.0 84.0
10.507000 2.630000 -1.797000 144.0 89.0 61.0
10.537000 2.673000 -1.804000 132.0 110.0 51.0
10.521000 2.704000 -1.803000 255.0 175.0 104.0
10.537000 2.743000 -1.807000 255.0 244.0 176.0
10.544000 2.780000 -1.810000 131.0 45.0 54.0
10.549000 2.799000 -1.812000 36.0 51.0 62.0
10.523000 2.828000 -1.809000 47.0 45.0 58.0
10.533000 2.866000 -1.812000 34.0 47.0 55.0
10.560000 2.909000 -1.819000 41.0 51.0 52.0
10.562000 2.946000 -1.821000 41.0 45.0 56.0
10.759000 3.038000 -1.859000 58.0 51.0 54.0
10.585000 3.024000 -1.828000 42.0 40.0 54.0
7.596000 2.175000 -1.277000 48.0 46.0 54.0
7.538000 2.184000 -1.268000 38.0 39.0 44.0
7.531000 2.208000 -1.268000 26.0 28.0 32.0
7.458000 2.212000 -1.255000 21.0 22.0 26.0
7.366000 2.209000 -1.240000 19.0 20.0 26.0
7.438000 2.257000 -1.254000 20.0 24.0 30.0
7.332000 2.249000 -1.236000 23.0 37.0 45.0
7.302000 2.252000 -1.231000 25.0 33.0 43.0
7.276000 2.269000 -1.227000 32.0 33.0 39.0
7.124000 2.246000 -1.201000 33.0 34.0 46.0
6.819000 2.172000 -1.145000 32.0 35.0 39.0
6.788000 2.186000 -1.140000 32.0 34.0 37.0
6.753000 2.198000 -1.135000 21.0 22.0 35.0
6.733000 2.203000 -1.132000 20.0 24.0 29.0
6.716000 2.221000 -1.130000 34.0 27.0 30.0
6.704000 2.240000 -1.129000 24.0 26.0 28.0
6.712000 2.266000 -1.132000 18.0 16.0 24.0
6.719000 2.293000 -1.135000 15.0 16.0 20.0
6.718000 2.316000 -1.136000 18.0 16.0 21.0
6.709000 2.336000 -1.136000 19.0 17.0 23.0
6.690000 2.341000 -1.133000 15.0 15.0 21.0
6.484000 2.291000 -1.095000 17.0 17.0 16.0
6.127000 2.185000 -1.029000 15.0 15.0 19.0
6.050000 2.179000 -1.016000 18.0 15.0 18.0
6.017000 2.188000 -1.011000 16.0 16.0 18.0
5.962000 2.189000 -1.002000 19.0 18.0 20.0
5.918000 2.194000 -0.995000 14.0 24.0 34.0
5.874000 2.188000 -0.987000 16.0 20.0 28.0
5.821000 2.189000 -0.979000 23.0 22.0 28.0
5.785000 2.196000 -0.973000 22.0 22.0 31.0
5.727000 2.194000 -0.963000 22.0 23.0 31.0
5.696000 2.203000 -0.959000 20.0 23.0 30.0
5.612000 2.191000 -0.944000 23.0 24.0 26.0
5.556000 2.178000 -0.934000 20.0 26.0 27.0
5.523000 2.185000 -0.929000 21.0 22.0 35.0
5.307000 2.138000 -0.890000 12.0 14.0 18.0
5.304000 2.156000 -0.891000 15.0 21.0 25.0
5.299000 2.173000 -0.891000 16.0 19.0 22.0
5.296000 2.191000 -0.892000 15.0 16.0 20.0
5.301000 2.203000 -0.894000 15.0 16.0 20.0
5.298000 2.222000 -0.894000 14.0 15.0 16.0
5.289000 2.237000 -0.894000 11.0 16.0 20.0
5.288000 2.256000 -0.895000 12.0 16.0 19.0
5.302000 2.282000 -0.899000 13.0 13.0 20.0
5.288000 2.296000 -0.898000 17.0 13.0 18.0
5.295000 2.319000 -0.901000 14.0 13.0 15.0
5.291000 2.327000 -0.901000 11.0 16.0 17.0
5.296000 2.349000 -0.903000 12.0 11.0 18.0
5.294000 2.369000 -0.904000 15.0 14.0 18.0
5.289000 2.386000 -0.905000 10.0 11.0 15.0
5.292000 2.407000 -0.907000 9.0 8.0 12.0
5.304000 2.433000 -0.910000 8.0 9.0 12.0
5.304000 2.443000 -0.911000 8.0 12.0 9.0
5.305000 2.464000 -0.913000 9.0 10.0 21.0
5.279000 2.472000 -0.909000 10.0 23.0 26.0
5.183000 2.446000 -0.892000 14.0 19.0 23.0
4.770000 2.268000 -0.812000 13.0 14.0 11.0
4.544000 2.176000 -0.769000 11.0 15.0 16.0
4.554000 2.199000 -0.772000 17.0 21.0 27.0
4.567000 2.214000 -0.776000 19.0 25.0 35.0
4.562000 2.229000 -0.776000 30.0 33.0 40.0
4.555000 2.244000 -0.776000 16.0 14.0 21.0
4.572000 2.270000 -0.781000 17.0 14.0 20.0
4.556000 2.280000 -0.779000 16.0 15.0 18.0
4.556000 2.298000 -0.780000 13.0 13.0 16.0
4.559000 2.318000 -0.783000 12.0 9.0 12.0
4.550000 2.322000 -0.782000 6.0 8.0 12.0
4.575000 2.353000 -0.788000 15.0 10.0 13.0
4.557000 2.362000 -0.786000 12.0 11.0 9.0
4.570000 2.387000 -0.790000 11.0 10.0 10.0
4.564000 2.402000 -0.790000 14.0 9.0 16.0
4.562000 2.420000 -0.791000 12.0 11.0 14.0
4.544000 2.419000 -0.789000 12.0 11.0 15.0
4.564000 2.449000 -0.794000 11.0 9.0 15.0
4.572000 2.471000 -0.797000 12.0 8.0 8.0
4.561000 2.484000 -0.797000 7.0 9.0 9.0
4.529000 2.485000 -0.792000 8.0 6.0 11.0
4.294000 2.372000 -0.746000 11.0 9.0 6.0
4.398000 2.448000 -0.768000 9.0 11.0 9.0
4.116000 2.315000 -0.713000 11.0 9.0 12.0
4.109000 2.328000 -0.713000 16.0 14.0 13.0
4.172000 2.381000 -0.727000 13.0 13.0 7.0
4.202000 2.416000 -0.735000 13.0 13.0 17.0
4.075000 2.360000 -0.711000 10.0 11.0 14.0
4.146000 2.419000 -0.727000 19.0 17.0 11.0
4.753000 2.788000 -0.853000 17.0 20.0 25.0
4.540000 2.680000 -0.811000 23.0 27.0 27.0
3.622000 2.148000 -0.622000 7.0 9.0 12.0
3.582000 2.139000 -0.615000 8.0 9.0 10.0
3.563000 2.143000 -0.613000 8.0 7.0 8.0
3.568000 2.161000 -0.615000 10.0 9.0 9.0
3.561000 2.165000 -0.614000 9.0 5.0 12.0
3.561000 2.180000 -0.616000 9.0 10.0 10.0
3.549000 2.188000 -0.615000 17.0 36.0 38.0
3.569000 2.216000 -0.620000 39.0 33.0 44.0
3.555000 2.223000 -0.619000 20.0 23.0 35.0
3.550000 2.235000 -0.619000 11.0 20.0 30.0
3.560000 2.257000 -0.623000 16.0 23.0 32.0
3.564000 2.268000 -0.625000 18.0 22.0 32.0
3.564000 2.283000 -0.626000 10.0 21.0 30.0
3.565000 2.300000 -0.628000 15.0 19.0 25.0
3.574000 2.322000 -0.631000 14.0 19.0 31.0
3.554000 2.324000 -0.628000 15.0 19.0 26.0
3.538000 2.330000 -0.627000 15.0 17.0 21.0
3.528000 2.339000 -0.626000 14.0 15.0 30.0
3.501000 2.329000 -0.621000 12.0 15.0 29.0
3.486000 2.335000 -0.619000 14.0 15.0 22.0
3.465000 2.337000 -0.617000 16.0 17.0 24.0
3.440000 2.335000 -0.613000 14.0 12.0 17.0
3.424000 2.340000 -0.611000 12.0 22.0 18.0
3.406000 2.343000 -0.609000 30.0 45.0 53.0
3.384000 2.344000 -0.605000 37.0 53.0 69.0
3.361000 2.335000 -0.601000 40.0 53.0 72.0
3.339000 2.336000 -0.598000 46.0 55.0 74.0
3.338000 2.351000 -0.599000 37.0 60.0 80.0
3.312000 2.347000 -0.595000 48.0 62.0 72.0
3.293000 2.350000 -0.593000 47.0 65.0 77.0
3.281000 2.357000 -0.592000 47.0 65.0 77.0
3.256000 2.354000 -0.588000 51.0 64.0 84.0
3.263000 2.367000 -0.590000 44.0 68.0 79.0
3.275000 2.392000 -0.595000 47.0 65.0 77.0
3.242000 2.383000 -0.589000 46.0 69.0 83.0
3.228000 2.389000 -0.588000 53.0 66.0 79.0
3.243000 2.415000 -0.592000 48.0 67.0 84.0
3.067000 2.298000 -0.555000 51.0 64.0 87.0
3.209000 2.414000 -0.588000 52.0 65.0 87.0
3.211000 2.431000 -0.590000 50.0 63.0 84.0
3.210000 2.446000 -0.591000 47.0 77.0 94.0
3.221000 2.471000 -0.595000 77.0 120.0 136.0
3.222000 2.488000 -0.597000 116.0 143.0 161.0
3.210000 2.494000 -0.596000 111.0 114.0 144.0
3.213000 2.513000 -0.599000 93.0 102.0 116.0
3.223000 2.529000 -0.602000 90.0 98.0 111.0
3.215000 2.539000 -0.602000 79.0 60.0 94.0
3.221000 2.561000 -0.605000 17.0 17.0 27.0
6.431000 -5.224000 -1.345000 39.0 51.0 69.0
6.432000 -5.192000 -1.342000 32.0 47.0 62.0
6.460000 -5.198000 -1.346000 34.0 48.0 68.0
6.470000 -5.172000 -1.345000 35.0 50.0 70.0
6.480000 -5.147000 -1.343000 31.0 47.0 65.0
6.515000 -5.141000 -1.348000 33.0 49.0 52.0
6.535000 -5.124000 -1.349000 33.0 42.0 50.0
6.547000 -5.100000 -1.348000 34.0 50.0 49.0
6.577000 -5.091000 -1.351000 23.0 31.0 46.0
6.593000 -5.086000 -1.353000 24.0 39.0 51.0
6.609000 -5.065000 -1.353000 30.0 38.0 53.0
6.645000 -5.060000 -1.357000 29.0 40.0 51.0
6.654000 -5.034000 -1.356000 29.0 40.0 54.0
6.669000 -5.012000 -1.355000 27.0 39.0 53.0
6.702000 -5.004000 -1.359000 30.0 39.0 55.0
6.716000 -4.998000 -1.361000 37.0 39.0 53.0
6.732000 -4.977000 -1.361000 34.0 42.0 55.0
6.765000 -4.969000 -1.364000 32.0 44.0 60.0
6.775000 -4.944000 -1.363000 31.0 42.0 60.0
6.801000 -4.930000 -1.365000 30.0 41.0 62.0
6.821000 -4.912000 -1.366000 31.0 45.0 54.0
6.838000 -4.891000 -1.367000 31.0 42.0 52.0
6.858000 -4.890000 -1.370000 35.0 38.0 55.0
6.877000 -4.871000 -1.370000 31.0 43.0 58.0
6.895000 -4.851000 -1.371000 31.0 42.0 55.0
6.914000 -4.832000 -1.372000 29.0 42.0 57.0
6.927000 -4.809000 -1.371000 31.0 42.0 53.0
6.972000 -4.807000 -1.378000 33.0 43.0 58.0
6.974000 -4.776000 -1.375000 32.0 48.0 62.0
6.984000 -4.768000 -1.376000 32.0 48.0 64.0
7.014000 -4.756000 -1.379000 29.0 44.0 64.0
7.021000 -4.728000 -1.377000 34.0 45.0 57.0
7.046000 -4.712000 -1.379000 32.0 42.0 69.0
7.067000 -4.695000 -1.380000 34.0 47.0 57.0
7.091000 -4.679000 -1.383000 33.0 46.0 52.0
7.118000 -4.664000 -1.385000 33.0 44.0 59.0
7.130000 -4.656000 -1.386000 39.0 47.0 60.0
7.143000 -4.633000 -1.386000 32.0 53.0 62.0
7.157000 -4.610000 -1.386000 39.0 52.0 69.0
7.192000 -4.600000 -1.390000 34.0 49.0 65.0
7.201000 -4.575000 -1.389000 38.0 51.0 71.0
7.236000 -4.564000 -1.393000 39.0 52.0 70.0
7.241000 -4.552000 -1.393000 46.0 55.0 72.0
7.265000 -4.536000 -1.395000 41.0 57.0 75.0
7.275000 -4.510000 -1.394000 49.0 50.0 67.0
7.302000 -4.495000 -1.397000 36.0 54.0 78.0
7.316000 -4.472000 -1.397000 37.0 53.0 57.0
7.329000 -4.448000 -1.396000 35.0 47.0 51.0
7.363000 -4.437000 -1.400000 27.0 51.0 50.0
7.373000 -4.427000 -1.401000 31.0 51.0 51.0
7.389000 -4.405000 -1.401000 39.0 44.0 60.0
7.413000 -4.388000 -1.404000 36.0 48.0 65.0
7.435000 -4.370000 -1.405000 47.0 53.0 64.0
7.466000 -4.356000 -1.409000 47.0 55.0 64.0
7.481000 -4.334000 -1.409000 26.0 43.0 41.0
7.503000 -4.315000 -1.411000 31.0 42.0 58.0
7.530000 -4.315000 -1.415000 33.0 47.0 51.0
7.549000 -4.294000 -1.416000 28.0 47.0 55.0
7.575000 -4.277000 -1.419000 33.0 37.0 37.0
7.603000 -4.262000 -1.422000 30.0 41.0 47.0
7.617000 -4.238000 -1.422000 28.0 29.0 42.0
7.646000 -4.223000 -1.425000 28.0 26.0 29.0
7.663000 -4.216000 -1.427000 26.0 28.0 30.0
7.678000 -4.193000 -1.427000 29.0 28.0 31.0
7.687000 -4.167000 -1.427000 49.0 61.0 47.0
7.707000 -4.147000 -1.428000 29.0 26.0 32.0
7.736000 -4.131000 -1.431000 30.0 31.0 41.0
7.777000 -4.121000 -1.437000 37.0 39.0 51.0
7.797000 -4.100000 -1.438000 24.0 35.0 47.0
7.817000 -4.095000 -1.441000 24.0 35.0 48.0
7.839000 -4.075000 -1.443000 32.0 32.0 46.0
7.846000 -4.048000 -1.442000 31.0 42.0 51.0
7.880000 -4.034000 -1.446000 38.0 43.0 54.0
7.898000 -4.012000 -1.447000 29.0 36.0 49.0
7.960000 -4.012000 -1.457000 34.0 37.0 49.0
8.013000 -4.007000 -1.465000 33.0 43.0 51.0
8.063000 -4.016000 -1.473000 31.0 47.0 51.0
8.109000 -4.007000 -1.480000 39.0 49.0 59.0
8.179000 -4.009000 -1.491000 37.0 53.0 65.0
8.232000 -4.003000 -1.499000 42.0 46.0 48.0
8.259000 -3.984000 -1.502000 49.0 56.0 58.0
8.342000 -3.992000 -1.516000 39.0 56.0 64.0
8.375000 -3.991000 -1.521000 38.0 49.0 56.0
8.397000 -3.969000 -1.523000 45.0 60.0 61.0
8.418000 -3.947000 -1.525000 45.0 61.0 89.0
8.477000 -3.942000 -1.534000 39.0 71.0 91.0
8.473000 -3.908000 -1.531000 36.0 45.0 57.0
8.537000 -3.905000 -1.541000 40.0 44.0 65.0
8.541000 -3.874000 -1.539000 32.0 41.0 61.0
8.563000 -3.868000 -1.542000 35.0 50.0 83.0
8.555000 -3.832000 -1.538000 42.0 55.0 56.0
8.589000 -3.815000 -1.543000 54.0 57.0 69.0
8.615000 -3.794000 -1.545000 40.0 45.0 56.0
8.663000 -3.783000 -1.552000 41.0 47.0 60.0
8.689000 -3.762000 -1.555000 49.0 59.0 65.0
8.717000 -3.741000 -1.558000 36.0 50.0 73.0
8.714000 -3.724000 -1.557000 50.0 57.0 78.0
8.702000 -3.687000 -1.552000 40.0 55.0 73.0
8.750000 -3.674000 -1.559000 48.0 62.0 86.0
8.765000 -3.648000 -1.560000 37.0 59.0 87.0
8.793000 -3.627000 -1.563000 45.0 59.0 54.0
8.806000 -3.601000 -1.563000 43.0 51.0 69.0
8.821000 -3.574000 -1.564000 44.0 45.0 52.0
8.825000 -3.560000 -1.564000 40.0 48.0 53.0
8.840000 -3.533000 -1.564000 36.0 52.0 68.0
8.856000 -3.508000 -1.565000 39.0 43.0 55.0
8.880000 -3.485000 -1.568000 37.0 42.0 42.0
8.906000 -3.463000 -1.571000 26.0 40.0 44.0
8.935000 -3.442000 -1.574000 39.0 41.0 46.0
8.922000 -3.421000 -1.571000 29.0 45.0 51.0
8.931000 -3.392000 -1.570000 37.0 47.0 54.0
8.956000 -3.369000 -1.573000 36.0 45.0 48.0
8.967000 -3.341000 -1.573000 34.0 45.0 44.0
8.979000 -3.314000 -1.573000 31.0 39.0 42.0
9.021000 -3.297000 -1.579000 27.0 40.0 44.0
9.009000 -3.261000 -1.575000 34.0 42.0 46.0
9.042000 -3.256000 -1.580000 30.0 39.0 44.0
9.060000 -3.231000 -1.582000 29.0 32.0 29.0
9.079000 -3.205000 -1.583000 27.0 37.0 46.0
9.104000 -3.182000 -1.586000 28.0 37.0 44.0
9.136000 -3.161000 -1.590000 26.0 35.0 41.0
9.133000 -3.128000 -1.588000 26.0 37.0 38.0
9.147000 -3.100000 -1.589000 20.0 29.0 31.0
9.146000 -3.084000 -1.588000 22.0 32.0 38.0
9.170000 -3.060000 -1.590000 18.0 30.0 40.0
9.174000 -3.030000 -1.589000 22.0 33.0 37.0
9.208000 -3.009000 -1.594000 21.0 28.0 23.0
9.216000 -2.979000 -1.594000 39.0 49.0 53.0
9.257000 -2.960000 -1.600000 30.0 38.0 67.0
9.259000 -2.929000 -1.598000 19.0 25.0 25.0
9.265000 -2.915000 -1.599000 23.0 25.0 25.0
9.321000 -2.900000 -1.607000 20.0 26.0 40.0
9.325000 -2.869000 -1.606000 22.0 30.0 32.0
9.345000 -2.843000 -1.608000 18.0 30.0 35.0
9.373000 -2.820000 -1.612000 15.0 26.0 25.0
9.385000 -2.791000 -1.613000 18.0 22.0 25.0
9.405000 -2.781000 -1.615000 20.0 22.0 28.0
9.431000 -2.756000 -1.618000 17.0 22.0 26.0
9.428000 -2.724000 -1.616000 20.0 23.0 25.0
9.414000 -2.687000 -1.612000 13.0 22.0 23.0
9.449000 -2.665000 -1.617000 21.0 25.0 31.0
9.470000 -2.639000 -1.619000 21.0 22.0 23.0
9.463000 -2.605000 -1.617000 18.0 19.0 25.0
9.479000 -2.594000 -1.619000 17.0 18.0 22.0
9.525000 -2.574000 -1.626000 14.0 15.0 17.0
9.540000 -2.546000 -1.627000 10.0 18.0 19.0
9.581000 -2.524000 -1.633000 14.0 17.0 22.0
9.591000 -2.495000 -1.633000 16.0 19.0 20.0
9.417000 -2.419000 -1.600000 22.0 17.0 21.0
8.869000 -2.250000 -1.499000 16.0 18.0 15.0
8.807000 -2.220000 -1.487000 15.0 18.0 18.0
8.784000 -2.184000 -1.481000 18.0 18.0 22.0
8.792000 -2.157000 -1.481000 14.0 12.0 16.0
8.795000 -2.129000 -1.481000 19.0 10.0 16.0
8.802000 -2.101000 -1.481000 12.0 11.0 13.0
8.805000 -2.073000 -1.480000 10.0 9.0 16.0
9.063000 -2.118000 -1.527000 13.0 12.0 13.0
9.179000 -2.114000 -1.546000 14.0 13.0 18.0
9.833000 -2.198000 -1.663000 38.0 49.0 52.0
9.834000 -2.166000 -1.662000 35.0 40.0 26.0
9.871000 -2.141000 -1.667000 33.0 49.0 58.0
9.890000 -2.113000 -1.669000 46.0 55.0 57.0
9.902000 -2.099000 -1.671000 44.0 51.0 63.0
9.932000 -2.073000 -1.675000 47.0 54.0 62.0
9.950000 -2.044000 -1.677000 47.0 60.0 86.0
9.984000 -2.018000 -1.682000 50.0 71.0 64.0
10.009000 -1.990000 -1.686000 48.0 60.0 53.0
10.017000 -1.959000 -1.686000 35.0 52.0 47.0
10.022000 -1.944000 -1.687000 41.0 54.0 56.0
10.050000 -1.916000 -1.690000 56.0 73.0 98.0
10.071000 -1.888000 -1.693000 58.0 64.0 81.0
10.077000 -1.856000 -1.693000 33.0 37.0 44.0
10.098000 -1.827000 -1.696000 38.0 64.0 88.0
10.135000 -1.801000 -1.702000 47.0 65.0 89.0
10.148000 -1.770000 -1.703000 40.0 45.0 42.0
10.174000 -1.758000 -1.707000 35.0 50.0 54.0
10.178000 -1.726000 -1.707000 45.0 57.0 65.0
10.201000 -1.697000 -1.710000 47.0 56.0 58.0
10.230000 -1.669000 -1.714000 37.0 37.0 37.0
10.252000 -1.639000 -1.717000 37.0 50.0 61.0
10.246000 -1.605000 -1.715000 40.0 45.0 41.0
10.264000 -1.575000 -1.718000 41.0 50.0 42.0
10.276000 -1.560000 -1.719000 36.0 40.0 37.0
10.336000 -1.536000 -1.729000 41.0 44.0 45.0
10.374000 -1.508000 -1.735000 47.0 55.0 69.0
10.398000 -1.479000 -1.739000 55.0 60.0 67.0
10.395000 -1.445000 -1.737000 54.0 57.0 71.0
10.382000 -1.410000 -1.734000 54.0 65.0 72.0
10.353000 -1.389000 -1.729000 57.0 68.0 90.0
10.363000 -1.358000 -1.730000 65.0 73.0 95.0
10.355000 -1.324000 -1.727000 62.0 70.0 86.0
10.359000 -1.291000 -1.727000 63.0 66.0 72.0
10.346000 -1.256000 -1.724000 74.0 72.0 70.0
10.350000 -1.224000 -1.724000 79.0 75.0 84.0
10.352000 -1.191000 -1.724000 82.0 77.0 80.0
10.348000 -1.174000 -1.723000 72.0 78.0 79.0
10.343000 -1.141000 -1.722000 64.0 66.0 79.0
10.361000 -1.110000 -1.724000 59.0 65.0 69.0
10.348000 -1.076000 -1.721000 58.0 63.0 76.0
10.354000 -1.043000 -1.722000 55.0 61.0 81.0
10.359000 -1.011000 -1.722000 60.0 72.0 73.0
10.364000 -0.979000 -1.722000 51.0 72.0 76.0
10.367000 -0.963000 -1.723000 50.0 64.0 90.0
10.361000 -0.929000 -1.721000 49.0 57.0 78.0
10.361000 -0.896000 -1.720000 52.0 63.0 80.0
10.364000 -0.864000 -1.720000 41.0 60.0 77.0
10.375000 -0.832000 -1.722000 50.0 63.0 73.0
10.381000 -0.800000 -1.723000 43.0 52.0 65.0
10.384000 -0.767000 -1.723000 41.0 51.0 75.0
10.383000 -0.750000 -1.722000 41.0 48.0 63.0
10.375000 -0.717000 -1.720000 39.0 48.0 66.0
10.372000 -0.684000 -1.719000 38.0 51.0 76.0
10.368000 -0.651000 -1.718000 41.0 52.0 72.0
10.368000 -0.619000 -1.718000 52.0 59.0 65.0
10.370000 -0.586000 -1.718000 44.0 56.0 76.0
10.358000 -0.553000 -1.716000 53.0 60.0 71.0
10.372000 -0.537000 -1.718000 43.0 53.0 74.0
10.362000 -0.504000 -1.716000 45.0 51.0 75.0
10.376000 -0.472000 -1.718000 40.0 53.0 72.0
10.383000 -0.440000 -1.719000 39.0 53.0 64.0
10.380000 -0.407000 -1.718000 42.0 47.0 49.0
10.386000 -0.374000 -1.719000 45.0 56.0 62.0
10.374000 -0.358000 -1.717000 45.0 51.0 81.0
10.383000 -0.325000 -1.718000 44.0 55.0 73.0
10.384000 -0.293000 -1.718000 50.0 54.0 68.0
10.387000 -0.260000 -1.719000 49.0 57.0 69.0
10.384000 -0.227000 -1.718000 43.0 58.0 71.0
10.383000 -0.195000 -1.718000 47.0 54.0 72.0
10.383000 -0.162000 -1.718000 46.0 52.0 79.0
10.385000 -0.146000 -1.718000 42.0 52.0 71.0
10.400000 -0.113000 -1.720000 42.0 57.0 73.0
10.394000 -0.081000 -1.719000 43.0 52.0 67.0
10.392000 -0.048000 -1.719000 46.0 52.0 86.0
10.388000 -0.015000 -1.718000 42.0 51.0 66.0
9.992000 0.000000 -1.722000 48.0 55.0 79.0
9.967000 0.032000 -1.717000 40.0 50.0 73.0
9.969000 0.063000 -1.718000 46.0 59.0 77.0
9.992000 0.094000 -1.722000 45.0 50.0 70.0
9.980000 0.110000 -1.720000 43.0 51.0 68.0
9.976000 0.141000 -1.719000 45.0 51.0 73.0
10.007000 0.173000 -1.725000 46.0 52.0 67.0
9.994000 0.204000 -1.723000 47.0 56.0 70.0
10.000000 0.236000 -1.724000 48.0 60.0 72.0
9.985000 0.267000 -1.721000 47.0 50.0 63.0
9.998000 0.299000 -1.724000 39.0 52.0 67.0
9.990000 0.314000 -1.722000 47.0 52.0 67.0
10.000000 0.346000 -1.725000 45.0 53.0 59.0
9.976000 0.377000 -1.720000 45.0 51.0 71.0
10.016000 0.409000 -1.728000 43.0 50.0 71.0
9.967000 0.439000 -1.719000 49.0 55.0 71.0
9.989000 0.471000 -1.723000 48.0 50.0 58.0
9.977000 0.486000 -1.721000 50.0 51.0 74.0
9.961000 0.517000 -1.719000 39.0 53.0 76.0
9.995000 0.550000 -1.725000 47.0 49.0 72.0
9.968000 0.580000 -1.721000 45.0 55.0 60.0
9.956000 0.611000 -1.719000 41.0 49.0 71.0
9.997000 0.645000 -1.727000 45.0 53.0 70.0
9.970000 0.675000 -1.722000 31.0 59.0 75.0
9.990000 0.692000 -1.726000 41.0 54.0 73.0
9.966000 0.722000 -1.722000 49.0 57.0 81.0
10.011000 0.756000 -1.731000 63.0 76.0 86.0
9.970000 0.785000 -1.723000 70.0 83.0 100.0
9.975000 0.817000 -1.725000 84.0 89.0 101.0
9.996000 0.850000 -1.729000 77.0 97.0 104.0
9.970000 0.879000 -1.725000 84.0 88.0 115.0
9.964000 0.895000 -1.724000 74.0 83.0 98.0
10.002000 0.930000 -1.732000 58.0 75.0 90.0
9.984000 0.960000 -1.729000 51.0 63.0 70.0
10.006000 0.994000 -1.734000 48.0 52.0 68.0
9.995000 1.024000 -1.732000 44.0 53.0 66.0
10.000000 1.056000 -1.734000 45.0 51.0 62.0
9.991000 1.087000 -1.733000 44.0 55.0 64.0
10.004000 1.105000 -1.735000 45.0 55.0 79.0
9.976000 1.133000 -1.731000 44.0 56.0 75.0
9.995000 1.167000 -1.735000 42.0 56.0 70.0
9.994000 1.199000 -1.735000 41.0 53.0 69.0
9.941000 1.224000 -1.726000 48.0 58.0 74.0
9.972000 1.260000 -1.733000 47.0 56.0 75.0
9.960000 1.274000 -1.731000 45.0 58.0 77.0
9.972000 1.308000 -1.734000 45.0 58.0 62.0
9.968000 1.339000 -1.734000 49.0 55.0 73.0
9.977000 1.372000 -1.737000 48.0 52.0 74.0
9.992000 1.406000 -1.740000 41.0 56.0 70.0
9.978000 1.436000 -1.738000 43.0 54.0 72.0
10.013000 1.473000 -1.746000 44.0 55.0 61.0
10.010000 1.489000 -1.746000 46.0 58.0 69.0
10.002000 1.520000 -1.745000 48.0 56.0 71.0
10.007000 1.553000 -1.747000 47.0 54.0 76.0
10.005000 1.585000 -1.747000 50.0 57.0 67.0
9.993000 1.615000 -1.746000 60.0 61.0 74.0
9.988000 1.646000 -1.746000 52.0 60.0 77.0
9.992000 1.679000 -1.748000 50.0 62.0 69.0
9.982000 1.694000 -1.746000 60.0 61.0 72.0
10.000000 1.729000 -1.751000 60.0 69.0 76.0
10.000000 1.761000 -1.752000 67.0 77.0 94.0
10.012000 1.796000 -1.755000 82.0 79.0 85.0
10.033000 1.832000 -1.760000 97.0 93.0 97.0
10.035000 1.865000 -1.762000 101.0 106.0 100.0
10.016000 1.894000 -1.759000 101.0 98.0 103.0
10.036000 1.914000 -1.763000 96.0 83.0 99.0
10.045000 1.949000 -1.766000 88.0 87.0 88.0
10.051000 1.982000 -1.769000 91.0 89.0 95.0
10.050000 2.015000 -1.770000 94.0 93.0 89.0
10.059000 2.050000 -1.772000 115.0 86.0 88.0
10.064000 2.084000 -1.775000 70.0 73.0 86.0
10.074000 2.102000 -1.777000 71.0 80.0 83.0
10.052000 2.131000 -1.774000 75.0 70.0 72.0
10.057000 2.165000 -1.776000 83.0 67.0 77.0
10.066000 2.200000 -1.779000 82.0 67.0 61.0
10.078000 2.235000 -1.783000 89.0 78.0 64.0
10.075000 2.268000 -1.784000 85.0 75.0 76.0
10.104000 2.308000 -1.791000 76.0 81.0 89.0
10.095000 2.322000 -1.790000 68.0 74.0 85.0
10.108000 2.359000 -1.794000 64.0 67.0 73.0
10.103000 2.391000 -1.794000 77.0 70.0 80.0
10.076000 2.418000 -1.790000 74.0 70.0 64.0
10.055000 2.447000 -1.788000 62.0 63.0 65.0
10.059000 2.481000 -1.790000 61.0 76.0 102.0
10.036000 2.509000 -1.787000 70.0 67.0 72.0
10.074000 2.535000 -1.795000 81.0 68.0 68.0
10.111000 2.578000 -1.804000 90.0 70.0 70.0
10.111000 2.612000 -1.805000 95.0 69.0 63.0
10.108000 2.645000 -1.806000 108.0 75.0 63.0
10.115000 2.681000 -1.809000 71.0 73.0 81.0
10.120000 2.716000 -1.812000 67.0 68.0 73.0
10.125000 2.735000 -1.814000 74.0 79.0 78.0
10.145000 2.774000 -1.819000 81.0 87.0 97.0
10.112000 2.799000 -1.814000 59.0 79.0 86.0
10.332000 2.895000 -1.858000 54.0 72.0 82.0
10.213000 2.896000 -1.837000 40.0 56.0 64.0
7.554000 2.175000 -1.328000 42.0 47.0 57.0
7.515000 2.189000 -1.322000 28.0 28.0 38.0
7.506000 2.199000 -1.321000 27.0 28.0 32.0
7.470000 2.215000 -1.315000 24.0 20.0 38.0
7.471000 2.240000 -1.317000 19.0 23.0 25.0
7.341000 2.227000 -1.293000 18.0 20.0 29.0
7.300000 2.240000 -1.287000 19.0 30.0 39.0
7.305000 2.266000 -1.289000 24.0 28.0 41.0
7.264000 2.279000 -1.282000 24.0 35.0 46.0
6.980000 2.203000 -1.228000 37.0 37.0 51.0
6.784000 2.165000 -1.191000 36.0 39.0 51.0
6.770000 2.184000 -1.190000 25.0 27.0 37.0
6.738000 2.198000 -1.185000 20.0 23.0 28.0
6.726000 2.217000 -1.184000 27.0 27.0 32.0
6.728000 2.241000 -1.186000 23.0 27.0 32.0
6.727000 2.252000 -1.186000 21.0 24.0 26.0
6.716000 2.272000 -1.186000 18.0 21.0 27.0
6.725000 2.299000 -1.189000 17.0 17.0 26.0
6.705000 2.316000 -1.186000 17.0 14.0 21.0
6.700000 2.337000 -1.187000 22.0 18.0 22.0
6.726000 2.370000 -1.193000 17.0 15.0 19.0
6.711000 2.388000 -1.192000 20.0 18.0 24.0
6.216000 2.225000 -1.095000 17.0 18.0 18.0
6.053000 2.189000 -1.065000 19.0 18.0 19.0
6.041000 2.206000 -1.064000 17.0 14.0 24.0
5.969000 2.202000 -1.051000 17.0 16.0 20.0
5.875000 2.188000 -1.034000 18.0 19.0 20.0
