# .PCD v0.7 - Point Cloud Data file format
VERSION 0.7
FIELDS x y z rgb
SIZE 4 4 4 4
TYPE F F F F
COUNT 1 1 1 1
WIDTH 1047
HEIGHT 1
POINTS 1047
DATA ascii
13.986000 -2.126000 -1.369000 192.0 108.0 42.0
14.186000 -2.110000 -1.391000 170.0 98.0 22.0
14.480000 -2.130000 -1.423000 185.0 217.0 220.0
14.658000 -2.109000 -1.443000 156.0 225.0 231.0
14.962000 -2.104000 -1.476000 211.0 242.0 221.0
16.606001 -2.226000 -1.658000 246.0 255.0 252.0
16.676001 -2.182000 -1.666000 252.0 255.0 236.0
16.709000 -2.160000 -1.669000 255.0 255.0 248.0
16.773001 -2.114000 -1.675000 255.0 253.0 244.0
16.815001 -2.066000 -1.679000 255.0 254.0 255.0
16.834000 -2.015000 -1.681000 255.0 242.0 236.0
16.871000 -1.965000 -1.684000 255.0 255.0 205.0
16.909000 -1.916000 -1.688000 255.0 254.0 248.0
16.893000 -1.860000 -1.685000 255.0 255.0 237.0
16.914000 -1.836000 -1.687000 255.0 251.0 249.0
16.985001 -1.789000 -1.694000 226.0 248.0 226.0
17.059999 -1.743000 -1.702000 209.0 238.0 214.0
17.079000 -1.691000 -1.704000 243.0 251.0 243.0
17.142000 -1.642000 -1.710000 192.0 193.0 191.0
17.141001 -1.588000 -1.709000 177.0 197.0 141.0
17.201000 -1.566000 -1.716000 156.0 181.0 145.0
17.191999 -1.511000 -1.714000 232.0 227.0 206.0
17.313000 -1.467000 -1.727000 202.0 208.0 187.0
17.266001 -1.408000 -1.722000 146.0 156.0 157.0
17.243000 -1.352000 -1.718000 166.0 159.0 155.0
17.233000 -1.297000 -1.717000 162.0 154.0 135.0
17.225000 -1.242000 -1.716000 159.0 149.0 140.0
17.179001 -1.211000 -1.710000 139.0 150.0 137.0
17.143000 -1.155000 -1.706000 142.0 146.0 141.0
17.136999 -1.100000 -1.705000 133.0 144.0 140.0
17.142000 -1.046000 -1.705000 129.0 134.0 137.0
17.118000 -0.991000 -1.702000 142.0 135.0 136.0
17.121000 -0.937000 -1.702000 147.0 144.0 133.0
17.091999 -0.882000 -1.698000 125.0 132.0 122.0
17.089001 -0.855000 -1.698000 137.0 127.0 124.0
17.076000 -0.800000 -1.696000 120.0 145.0 135.0
17.073000 -0.746000 -1.696000 144.0 142.0 127.0
17.055000 -0.692000 -1.693000 130.0 137.0 125.0
17.045000 -0.638000 -1.692000 129.0 137.0 135.0
17.037001 -0.584000 -1.691000 136.0 137.0 155.0
17.018000 -0.557000 -1.689000 130.0 132.0 146.0
17.010000 -0.503000 -1.688000 123.0 127.0 130.0
16.993000 -0.449000 -1.686000 125.0 129.0 134.0
16.981001 -0.395000 -1.684000 122.0 131.0 136.0
16.969999 -0.342000 -1.683000 123.0 129.0 129.0
16.966999 -0.289000 -1.682000 125.0 135.0 144.0
16.954000 -0.235000 -1.681000 111.0 123.0 122.0
16.941999 -0.208000 -1.679000 115.0 124.0 124.0
16.929001 -0.155000 -1.678000 123.0 119.0 124.0
16.916000 -0.102000 -1.676000 125.0 126.0 136.0
16.920000 -0.049000 -1.677000 130.0 133.0 137.0
16.021000 0.027000 -1.676000 126.0 134.0 142.0
16.007000 0.077000 -1.674000 128.0 124.0 135.0
15.996000 0.128000 -1.673000 130.0 130.0 126.0
15.994000 0.153000 -1.673000 136.0 138.0 133.0
15.990000 0.203000 -1.672000 142.0 148.0 141.0
15.977000 0.253000 -1.671000 147.0 135.0 119.0
15.950000 0.303000 -1.668000 134.0 139.0 143.0
15.951000 0.353000 -1.668000 136.0 146.0 143.0
15.944000 0.403000 -1.667000 143.0 142.0 142.0
15.949000 0.453000 -1.668000 141.0 133.0 129.0
15.930000 0.478000 -1.666000 138.0 124.0 138.0
15.913000 0.527000 -1.664000 123.0 125.0 129.0
15.911000 0.577000 -1.664000 130.0 125.0 123.0
15.921000 0.628000 -1.665000 127.0 126.0 126.0
15.889000 0.676000 -1.662000 127.0 125.0 119.0
15.881000 0.726000 -1.661000 122.0 126.0 124.0
15.869000 0.775000 -1.660000 124.0 118.0 122.0
15.861000 0.800000 -1.659000 119.0 111.0 120.0
15.863000 0.850000 -1.660000 117.0 116.0 114.0
15.860000 0.900000 -1.660000 117.0 123.0 132.0
15.849000 0.949000 -1.659000 123.0 119.0 117.0
15.858000 1.000000 -1.660000 115.0 120.0 115.0
15.835000 1.048000 -1.658000 121.0 117.0 114.0
15.841000 1.074000 -1.659000 123.0 128.0 112.0
15.816000 1.122000 -1.656000 121.0 124.0 123.0
15.803000 1.171000 -1.655000 111.0 119.0 117.0
15.803000 1.221000 -1.656000 123.0 118.0 136.0
15.793000 1.270000 -1.655000 117.0 121.0 127.0
15.783000 1.319000 -1.654000 115.0 113.0 109.0
15.771000 1.368000 -1.653000 115.0 112.0 101.0
15.784000 1.394000 -1.655000 122.0 103.0 82.0
15.790000 1.445000 -1.656000 117.0 102.0 88.0
15.817000 1.497000 -1.660000 124.0 98.0 77.0
15.782000 1.544000 -1.657000 119.0 96.0 75.0
15.775000 1.593000 -1.656000 116.0 92.0 70.0
15.761000 1.642000 -1.655000 81.0 72.0 65.0
15.795000 1.696000 -1.660000 33.0 42.0 58.0
15.802000 1.722000 -1.661000 13.0 33.0 46.0
15.793000 1.771000 -1.660000 19.0 31.0 33.0
15.795000 1.821000 -1.661000 25.0 29.0 39.0
15.801000 1.872000 -1.663000 22.0 30.0 36.0
15.797000 1.922000 -1.663000 23.0 30.0 34.0
15.797000 1.972000 -1.664000 25.0 29.0 33.0
15.814000 2.025000 -1.667000 24.0 30.0 38.0
15.821000 2.051000 -1.668000 26.0 30.0 38.0
15.810000 2.100000 -1.667000 27.0 30.0 36.0
15.815000 2.152000 -1.669000 24.0 26.0 36.0
15.824000 2.203000 -1.670000 24.0 28.0 27.0
15.827000 2.255000 -1.672000 27.0 28.0 34.0
15.842000 2.307000 -1.674000 23.0 29.0 34.0
15.846000 2.333000 -1.675000 23.0 28.0 33.0
15.838000 2.383000 -1.675000 24.0 26.0 33.0
15.819000 2.431000 -1.674000 23.0 27.0 32.0
15.856000 2.488000 -1.679000 24.0 24.0 28.0
15.847000 2.537000 -1.679000 22.0 23.0 29.0
15.862000 2.591000 -1.682000 21.0 22.0 27.0
15.856000 2.641000 -1.682000 20.0 25.0 25.0
15.875000 2.670000 -1.685000 20.0 23.0 26.0
15.877000 2.721000 -1.686000 21.0 21.0 26.0
15.870000 2.772000 -1.686000 18.0 23.0 26.0
14.157000 2.521000 -1.484000 18.0 18.0 26.0
13.973000 2.534000 -1.463000 17.0 19.0 17.0
13.822000 2.552000 -1.446000 10.0 10.0 15.0
13.621000 2.559000 -1.423000 10.0 7.0 11.0
13.316000 2.524000 -1.387000 9.0 6.0 9.0
12.942000 2.496000 -1.343000 7.0 7.0 9.0
12.645000 2.481000 -1.309000 8.0 6.0 8.0
12.384000 2.470000 -1.278000 8.0 6.0 5.0
11.907000 2.454000 -1.223000 15.0 17.0 22.0
11.846000 2.481000 -1.217000 15.0 15.0 20.0
11.535000 2.435000 -1.180000 15.0 16.0 18.0
11.250000 2.412000 -1.147000 12.0 11.0 6.0
11.195000 2.438000 -1.142000 46.0 58.0 70.0
11.108000 2.455000 -1.132000 47.0 50.0 58.0
10.976000 2.463000 -1.117000 12.0 16.0 17.0
10.899000 2.482000 -1.109000 18.0 15.0 22.0
10.839000 2.504000 -1.102000 14.0 15.0 19.0
10.815000 2.516000 -1.100000 13.0 13.0 16.0
10.776000 2.543000 -1.096000 14.0 15.0 20.0
10.755000 2.574000 -1.095000 23.0 27.0 29.0
10.752000 2.609000 -1.096000 29.0 31.0 34.0
10.735000 2.640000 -1.094000 36.0 37.0 40.0
10.734000 2.676000 -1.095000 34.0 43.0 43.0
10.734000 2.694000 -1.096000 36.0 41.0 43.0
10.725000 2.728000 -1.096000 33.0 37.0 43.0
10.716000 2.761000 -1.096000 33.0 35.0 40.0
10.712000 2.796000 -1.096000 29.0 34.0 42.0
10.716000 2.833000 -1.098000 27.0 38.0 46.0
10.953000 2.932000 -1.128000 28.0 39.0 49.0
10.685000 2.897000 -1.096000 29.0 46.0 59.0
10.715000 2.923000 -1.100000 29.0 47.0 67.0
10.700000 2.991000 -1.101000 37.0 64.0 96.0
10.664000 3.017000 -1.098000 42.0 67.0 96.0
10.652000 3.050000 -1.097000 44.0 74.0 107.0
10.652000 3.086000 -1.099000 49.0 78.0 106.0
10.647000 3.103000 -1.099000 51.0 82.0 105.0
10.636000 3.136000 -1.098000 46.0 77.0 90.0
10.725000 3.199000 -1.110000 41.0 73.0 95.0
10.743000 3.241000 -1.114000 57.0 78.0 113.0
10.630000 3.244000 -1.101000 41.0 63.0 76.0
10.639000 3.283000 -1.104000 61.0 93.0 120.0
10.684000 3.333000 -1.110000 61.0 88.0 128.0
10.724000 3.364000 -1.116000 57.0 94.0 124.0
10.685000 3.389000 -1.112000 54.0 97.0 122.0
10.691000 3.428000 -1.115000 48.0 87.0 124.0
10.646000 3.450000 -1.110000 40.0 85.0 111.0
10.620000 3.479000 -1.109000 30.0 71.0 110.0
10.691000 3.539000 -1.119000 25.0 69.0 106.0
10.696000 3.578000 -1.121000 24.0 67.0 97.0
10.685000 3.593000 -1.120000 25.0 65.0 91.0
10.681000 3.629000 -1.121000 20.0 58.0 76.0
10.677000 3.665000 -1.122000 92.0 110.0 135.0
10.666000 3.699000 -1.122000 78.0 112.0 131.0
10.684000 3.743000 -1.126000 65.0 101.0 138.0
10.682000 3.780000 -1.127000 56.0 101.0 133.0
10.696000 3.822000 -1.130000 35.0 85.0 129.0
10.707000 3.845000 -1.132000 36.0 91.0 119.0
10.704000 3.882000 -1.133000 13.0 71.0 124.0
10.722000 3.927000 -1.137000 33.0 110.0 157.0
10.711000 3.961000 -1.137000 211.0 233.0 211.0
14.632000 5.505000 -1.630000 82.0 92.0 88.0
14.594000 5.544000 -1.628000 94.0 125.0 122.0
14.591000 5.569000 -1.628000 148.0 146.0 127.0
14.571000 5.614000 -1.628000 153.0 150.0 139.0
14.544000 5.656000 -1.627000 156.0 153.0 143.0
14.501000 5.691000 -1.624000 145.0 144.0 79.0
14.461000 5.728000 -1.621000 171.0 154.0 117.0
14.446000 5.775000 -1.621000 165.0 153.0 142.0
14.373000 5.772000 -1.613000 177.0 170.0 159.0
14.367000 5.822000 -1.615000 172.0 177.0 165.0
14.369000 5.876000 -1.617000 171.0 171.0 156.0
14.330000 5.912000 -1.615000 162.0 164.0 152.0
14.326000 5.964000 -1.617000 174.0 160.0 152.0
14.262000 5.989000 -1.611000 162.0 169.0 158.0
14.219000 6.024000 -1.608000 175.0 178.0 158.0
14.224000 6.053000 -1.610000 173.0 176.0 166.0
14.249000 6.116000 -1.615000 167.0 161.0 152.0
14.151000 6.127000 -1.605000 168.0 157.0 143.0
14.163000 6.185000 -1.609000 156.0 156.0 145.0
14.091000 6.206000 -1.603000 161.0 154.0 139.0
14.009000 6.223000 -1.595000 165.0 152.0 146.0
13.967000 6.231000 -1.591000 160.0 152.0 146.0
13.951000 6.276000 -1.591000 181.0 156.0 143.0
13.888000 6.300000 -1.585000 177.0 170.0 151.0
13.841000 6.331000 -1.582000 183.0 174.0 157.0
13.817000 6.373000 -1.581000 188.0 163.0 150.0
13.730000 6.386000 -1.573000 173.0 168.0 145.0
13.591000 6.373000 -1.557000 174.0 160.0 152.0
13.472000 6.343000 -1.543000 167.0 154.0 143.0
13.418000 6.369000 -1.539000 190.0 154.0 134.0
13.390000 6.408000 -1.538000 159.0 126.0 87.0
13.291000 6.412000 -1.528000 125.0 105.0 60.0
13.157000 6.399000 -1.513000 243.0 230.0 94.0
13.136000 6.440000 -1.513000 126.0 144.0 167.0
13.011000 6.429000 -1.499000 120.0 72.0 63.0
12.960000 6.430000 -1.494000 121.0 125.0 65.0
12.927000 6.464000 -1.492000 95.0 95.0 46.0
12.878000 6.491000 -1.488000 94.0 99.0 62.0
12.755000 6.479000 -1.475000 59.0 63.0 48.0
12.744000 6.523000 -1.476000 90.0 64.0 36.0
12.684000 6.544000 -1.471000 85.0 125.0 55.0
12.535000 6.517000 -1.454000 52.0 69.0 44.0
12.468000 6.507000 -1.447000 51.0 59.0 40.0
12.460000 6.553000 -1.448000 47.0 43.0 34.0
12.413000 6.578000 -1.445000 44.0 61.0 33.0
12.280000 6.557000 -1.430000 91.0 98.0 112.0
12.265000 6.599000 -1.431000 89.0 96.0 62.0
12.219000 6.624000 -1.427000 80.0 102.0 89.0
12.188000 6.632000 -1.425000 66.0 96.0 53.0
12.406000 6.800000 -1.456000 77.0 107.0 61.0
12.466000 6.884000 -1.467000 98.0 119.0 66.0
12.384000 6.890000 -1.459000 86.0 112.0 60.0
12.308000 6.898000 -1.452000 83.0 109.0 73.0
12.288000 6.938000 -1.452000 96.0 155.0 69.0
12.285000 6.987000 -1.455000 105.0 136.0 67.0
12.281000 7.011000 -1.456000 93.0 140.0 71.0
12.144000 6.983000 -1.440000 89.0 117.0 48.0
11.991000 6.946000 -1.422000 114.0 130.0 68.0
12.095000 7.056000 -1.439000 109.0 143.0 63.0
12.175000 7.154000 -1.453000 102.0 135.0 51.0
12.050000 7.132000 -1.439000 96.0 128.0 54.0
12.214000 7.280000 -1.465000 93.0 116.0 50.0
12.055000 7.212000 -1.445000 75.0 99.0 75.0
11.895000 7.167000 -1.426000 68.0 88.0 54.0
11.874000 7.206000 -1.426000 55.0 79.0 34.0
11.878000 7.259000 -1.430000 38.0 64.0 62.0
11.862000 7.301000 -1.431000 48.0 59.0 40.0
11.917000 7.386000 -1.441000 51.0 83.0 41.0
11.941000 7.453000 -1.448000 69.0 77.0 38.0
11.835000 7.413000 -1.435000 51.0 101.0 43.0
11.941000 7.531000 -1.453000 68.0 83.0 53.0
11.971000 7.603000 -1.460000 50.0 67.0 41.0
11.900000 7.610000 -1.454000 50.0 70.0 34.0
11.960000 7.701000 -1.465000 73.0 90.0 69.0
11.896000 7.713000 -1.460000 52.0 77.0 56.0
11.857000 7.714000 -1.456000 41.0 69.0 53.0
11.834000 7.753000 -1.456000 53.0 72.0 34.0
11.840000 7.809000 -1.461000 43.0 77.0 44.0
11.722000 7.785000 -1.448000 57.0 93.0 50.0
11.810000 7.897000 -1.463000 49.0 54.0 48.0
11.693000 7.872000 -1.450000 21.0 47.0 37.0
11.736000 7.954000 -1.460000 26.0 42.0 30.0
11.855000 8.062000 -1.478000 26.0 49.0 33.0
11.675000 7.994000 -1.457000 32.0 60.0 38.0
11.761000 8.107000 -1.472000 52.0 77.0 47.0
11.569000 8.029000 -1.449000 45.0 74.0 62.0
11.333000 7.919000 -1.419000 37.0 67.0 40.0
11.502000 8.090000 -1.446000 81.0 105.0 59.0
11.439000 8.072000 -1.439000 161.0 191.0 120.0
11.323000 8.044000 -1.426000 64.0 97.0 43.0
11.281000 8.068000 -1.424000 47.0 59.0 21.0
11.278000 8.120000 -1.427000 53.0 58.0 34.0
11.179000 8.102000 -1.416000 33.0 76.0 47.0
11.128000 8.118000 -1.413000 24.0 34.0 37.0
11.120000 8.166000 -1.415000 31.0 35.0 23.0
11.204000 8.255000 -1.429000 19.0 37.0 22.0
10.985000 8.147000 -1.401000 22.0 29.0 20.0
10.931000 8.160000 -1.397000 24.0 26.0 16.0
10.791000 8.109000 -1.380000 22.0 37.0 17.0
10.925000 8.264000 -1.404000 23.0 27.0 19.0
10.730000 8.169000 -1.379000 18.0 23.0 17.0
10.737000 8.228000 -1.384000 21.0 24.0 18.0
10.641000 8.181000 -1.371000 17.0 25.0 21.0
10.708000 8.286000 -1.385000 41.0 31.0 19.0
10.668000 8.309000 -1.383000 15.0 23.0 18.0
10.480000 8.216000 -1.359000 11.0 19.0 13.0
10.564000 8.335000 -1.375000 11.0 17.0 11.0
10.335000 8.208000 -1.345000 9.0 17.0 13.0
10.567000 8.446000 -1.384000 12.0 18.0 12.0
10.484000 8.407000 -1.373000 11.0 17.0 13.0
10.521000 8.491000 -1.383000 15.0 20.0 12.0
10.547000 8.566000 -1.391000 15.0 24.0 14.0
10.281000 8.405000 -1.355000 18.0 23.0 15.0
10.583000 8.707000 -1.405000 13.0 25.0 13.0
10.512000 8.703000 -1.398000 13.0 27.0 19.0
10.353000 8.627000 -1.378000 14.0 17.0 13.0
10.338000 8.642000 -1.378000 12.0 18.0 13.0
9.152000 -7.561000 -1.190000 255.0 52.0 32.0
9.467000 -7.772000 -1.234000 255.0 57.0 37.0
9.511000 -7.758000 -1.237000 255.0 54.0 35.0
9.830000 -7.968000 -1.282000 255.0 54.0 40.0
9.742000 -7.846000 -1.265000 255.0 53.0 46.0
7.882000 -6.301000 -0.982000 173.0 100.0 78.0
7.876000 -6.255000 -0.978000 82.0 62.0 46.0
9.644000 -7.593000 -1.237000 24.0 33.0 25.0
9.744000 -7.623000 -1.249000 17.0 28.0 30.0
9.818000 -7.631000 -1.256000 34.0 60.0 72.0
9.990000 -7.715000 -1.278000 80.0 77.0 77.0
10.146000 -7.785000 -1.297000 90.0 93.0 80.0
10.316000 -7.890000 -1.321000 93.0 106.0 71.0
10.353000 -7.867000 -1.322000 89.0 121.0 86.0
10.373000 -7.831000 -1.322000 100.0 104.0 67.0
10.402000 -7.802000 -1.322000 98.0 106.0 69.0
10.438000 -7.778000 -1.324000 98.0 115.0 71.0
10.475000 -7.754000 -1.326000 97.0 112.0 68.0
10.493000 -7.717000 -1.325000 89.0 108.0 61.0
10.499000 -7.696000 -1.324000 88.0 124.0 77.0
10.521000 -7.661000 -1.324000 77.0 111.0 68.0
10.557000 -7.637000 -1.325000 72.0 100.0 69.0
10.579000 -7.602000 -1.325000 65.0 91.0 59.0
10.606000 -7.571000 -1.326000 70.0 93.0 59.0
10.631000 -7.539000 -1.326000 78.0 104.0 52.0
10.657000 -7.507000 -1.326000 71.0 99.0 57.0
10.667000 -7.489000 -1.326000 87.0 107.0 57.0
10.685000 -7.452000 -1.325000 63.0 91.0 59.0
10.720000 -7.426000 -1.327000 80.0 96.0 60.0
10.717000 -7.374000 -1.323000 71.0 94.0 53.0
10.758000 -7.353000 -1.326000 53.0 95.0 57.0
10.768000 -7.310000 -1.324000 53.0 100.0 55.0
10.763000 -7.282000 -1.322000 50.0 88.0 52.0
10.796000 -7.255000 -1.323000 53.0 84.0 69.0
10.815000 -7.219000 -1.322000 70.0 85.0 76.0
9.361000 -6.202000 -1.115000 82.0 104.0 65.0
10.827000 -7.129000 -1.318000 60.0 93.0 60.0
10.843000 -7.090000 -1.317000 72.0 95.0 57.0
10.874000 -7.062000 -1.318000 77.0 97.0 47.0
10.881000 -7.042000 -1.318000 75.0 83.0 48.0
10.888000 -6.999000 -1.315000 98.0 102.0 48.0
10.925000 -6.974000 -1.318000 68.0 97.0 72.0
10.956000 -6.945000 -1.319000 71.0 99.0 90.0
10.981000 -6.913000 -1.319000 120.0 141.0 146.0
10.999000 -6.876000 -1.319000 144.0 169.0 176.0
11.059000 -6.866000 -1.324000 166.0 182.0 171.0
11.063000 -6.844000 -1.323000 161.0 170.0 155.0
11.085000 -6.809000 -1.323000 179.0 156.0 136.0
11.086000 -6.762000 -1.320000 177.0 171.0 144.0
11.331000 -6.863000 -1.351000 163.0 156.0 138.0
10.594000 -6.370000 -1.247000 170.0 171.0 151.0
10.388000 -6.200000 -1.216000 177.0 170.0 137.0
11.279000 -6.663000 -1.334000 192.0 214.0 249.0
11.295000 -6.625000 -1.333000 209.0 216.0 228.0
11.278000 -6.567000 -1.328000 255.0 212.0 163.0
11.364000 -6.570000 -1.337000 230.0 203.0 185.0
11.371000 -6.526000 -1.335000 193.0 198.0 181.0
11.438000 -6.517000 -1.341000 233.0 187.0 183.0
11.471000 -6.512000 -1.344000 222.0 208.0 184.0
11.443000 -6.448000 -1.338000 207.0 207.0 190.0
11.513000 -6.440000 -1.345000 211.0 213.0 205.0
11.524000 -6.399000 -1.343000 223.0 203.0 200.0
11.593000 -6.390000 -1.350000 222.0 210.0 177.0
11.618000 -6.357000 -1.351000 226.0 219.0 206.0
11.490000 -6.239000 -1.331000 225.0 210.0 212.0
11.725000 -6.343000 -1.361000 223.0 227.0 183.0
11.836000 -6.356000 -1.373000 228.0 195.0 200.0
12.054000 -6.424000 -1.399000 198.0 195.0 143.0
11.956000 -6.324000 -1.384000 61.0 61.0 56.0
7.436000 -3.892000 -0.783000 182.0 174.0 148.0
7.645000 -3.972000 -0.809000 182.0 169.0 141.0
7.349000 -3.788000 -0.768000 141.0 144.0 104.0
7.299000 -3.239000 -0.735000 80.0 86.0 93.0
7.311000 -3.231000 -0.736000 76.0 62.0 78.0
7.536000 -3.303000 -0.764000 76.0 66.0 45.0
7.252000 -3.150000 -0.726000 70.0 95.0 112.0
7.420000 -2.643000 -0.722000 24.0 24.0 28.0
7.480000 -2.638000 -0.729000 28.0 30.0 34.0
7.494000 -2.630000 -0.730000 32.0 31.0 33.0
7.378000 -2.563000 -0.715000 64.0 25.0 21.0
7.454000 -2.563000 -0.723000 167.0 65.0 68.0
7.482000 -2.547000 -0.726000 253.0 76.0 48.0
8.741000 -2.452000 -0.863000 48.0 46.0 49.0
11.736000 -2.868000 -1.215000 87.0 84.0 74.0
11.718000 -2.825000 -1.211000 47.0 59.0 61.0
11.735000 -2.790000 -1.212000 52.0 43.0 33.0
11.732000 -2.750000 -1.211000 18.0 19.0 19.0
11.735000 -2.712000 -1.210000 12.0 9.0 11.0
11.743000 -2.675000 -1.210000 12.0 11.0 14.0
11.763000 -2.660000 -1.212000 14.0 9.0 12.0
11.759000 -2.620000 -1.211000 12.0 11.0 12.0
11.762000 -2.582000 -1.210000 11.0 10.0 11.0
11.779000 -2.547000 -1.211000 12.0 11.0 13.0
11.780000 -2.509000 -1.210000 13.0 15.0 15.0
11.782000 -2.470000 -1.209000 14.0 14.0 20.0
11.787000 -2.433000 -1.209000 16.0 18.0 19.0
11.799000 -2.416000 -1.210000 17.0 19.0 25.0
11.807000 -2.379000 -1.210000 21.0 21.0 30.0
11.824000 -2.344000 -1.211000 24.0 23.0 33.0
11.841000 -2.309000 -1.212000 30.0 28.0 35.0
11.875000 -2.277000 -1.216000 26.0 25.0 34.0
11.896000 -2.242000 -1.217000 28.0 28.0 36.0
12.243000 -2.209000 -1.257000 39.0 47.0 62.0
12.501000 -2.215000 -1.286000 39.0 44.0 55.0
12.566000 -2.186000 -1.293000 188.0 197.0 174.0
12.724000 -2.173000 -1.311000 233.0 195.0 195.0
12.962000 -2.172000 -1.339000 85.0 142.0 121.0
13.092000 -2.173000 -1.354000 59.0 37.0 17.0
13.297000 -2.164000 -1.377000 23.0 42.0 99.0
13.478000 -2.151000 -1.398000 160.0 173.0 221.0
13.693000 -2.141000 -1.423000 244.0 241.0 209.0
13.949000 -2.137000 -1.452000 255.0 255.0 245.0
14.368000 -2.156000 -1.501000 234.0 227.0 197.0
14.638000 -2.150000 -1.532000 255.0 249.0 243.0
15.043000 -2.138000 -1.579000 255.0 255.0 255.0
15.595000 -2.167000 -1.643000 255.0 254.0 241.0
15.920000 -2.162000 -1.681000 213.0 240.0 239.0
15.945000 -2.114000 -1.683000 255.0 255.0 255.0
15.961000 -2.065000 -1.684000 255.0 255.0 216.0
16.011999 -2.047000 -1.690000 255.0 255.0 239.0
16.020000 -1.996000 -1.690000 255.0 255.0 255.0
16.044001 -1.948000 -1.692000 255.0 248.0 223.0
16.094999 -1.903000 -1.697000 255.0 253.0 255.0
16.093000 -1.852000 -1.697000 236.0 250.0 255.0
16.028000 -1.793000 -1.688000 221.0 228.0 158.0
16.030001 -1.742000 -1.688000 249.0 242.0 224.0
16.132999 -1.728000 -1.700000 250.0 248.0 243.0
16.167999 -1.681000 -1.703000 233.0 227.0 245.0
16.201000 -1.633000 -1.706000 148.0 139.0 89.0
16.236000 -1.585000 -1.710000 177.0 146.0 128.0
16.260000 -1.536000 -1.712000 229.0 201.0 207.0
16.312000 -1.489000 -1.718000 221.0 209.0 208.0
16.358999 -1.441000 -1.723000 170.0 164.0 151.0
16.385000 -1.418000 -1.725000 165.0 172.0 165.0
16.349001 -1.363000 -1.721000 159.0 161.0 144.0
16.312000 -1.308000 -1.716000 173.0 149.0 136.0
16.292000 -1.255000 -1.713000 154.0 138.0 123.0
16.274000 -1.202000 -1.710000 146.0 142.0 142.0
16.230000 -1.148000 -1.705000 154.0 146.0 138.0
16.236000 -1.122000 -1.705000 183.0 161.0 152.0
16.230000 -1.071000 -1.704000 158.0 154.0 139.0
16.211000 -1.018000 -1.702000 167.0 160.0 143.0
16.216000 -0.967000 -1.702000 142.0 138.0 128.0
16.195000 -0.915000 -1.699000 122.0 132.0 138.0
16.186001 -0.864000 -1.698000 127.0 136.0 142.0
16.169001 -0.812000 -1.695000 132.0 142.0 128.0
16.158001 -0.786000 -1.694000 130.0 135.0 136.0
16.155001 -0.735000 -1.693000 134.0 132.0 134.0
16.141001 -0.683000 -1.691000 113.0 129.0 129.0
16.149000 -0.633000 -1.692000 123.0 123.0 125.0
16.131001 -0.581000 -1.690000 117.0 129.0 134.0
16.111000 -0.530000 -1.687000 117.0 125.0 128.0
16.105000 -0.479000 -1.686000 120.0 122.0 124.0
16.096001 -0.453000 -1.685000 115.0 122.0 127.0
16.087000 -0.403000 -1.684000 114.0 120.0 121.0
16.077999 -0.352000 -1.683000 129.0 132.0 131.0
16.063999 -0.301000 -1.681000 123.0 132.0 128.0
16.054001 -0.250000 -1.680000 117.0 132.0 124.0
16.049000 -0.200000 -1.679000 108.0 121.0 127.0
16.040001 -0.149000 -1.678000 114.0 121.0 132.0
16.034000 -0.124000 -1.677000 114.0 124.0 126.0
16.035999 -0.074000 -1.677000 129.0 135.0 133.0
16.027000 -0.023000 -1.676000 141.0 138.0 138.0
15.378000 0.024000 -1.689000 127.0 140.0 133.0
15.368000 0.072000 -1.687000 129.0 144.0 137.0
15.348000 0.120000 -1.685000 131.0 133.0 139.0
15.353000 0.144000 -1.686000 128.0 139.0 129.0
15.339000 0.192000 -1.684000 131.0 145.0 135.0
15.318000 0.240000 -1.682000 130.0 141.0 137.0
15.318000 0.288000 -1.682000 134.0 146.0 133.0
15.317000 0.336000 -1.682000 132.0 147.0 134.0
15.304000 0.384000 -1.680000 131.0 130.0 126.0
15.291000 0.408000 -1.679000 136.0 130.0 124.0
15.278000 0.456000 -1.677000 120.0 131.0 139.0
15.278000 0.504000 -1.677000 121.0 127.0 130.0
15.267000 0.551000 -1.676000 131.0 134.0 114.0
15.257000 0.599000 -1.675000 119.0 137.0 121.0
15.255000 0.647000 -1.675000 121.0 128.0 119.0
15.233000 0.694000 -1.673000 116.0 127.0 123.0
15.234000 0.718000 -1.673000 123.0 127.0 124.0
15.218000 0.765000 -1.671000 129.0 125.0 125.0
15.237000 0.814000 -1.674000 113.0 125.0 129.0
15.207000 0.860000 -1.671000 117.0 119.0 113.0
15.204000 0.908000 -1.671000 120.0 130.0 123.0
15.203000 0.956000 -1.671000 118.0 128.0 124.0
15.192000 1.003000 -1.670000 121.0 127.0 121.0
15.176000 1.026000 -1.668000 121.0 120.0 122.0
15.191000 1.075000 -1.670000 112.0 125.0 129.0
15.182000 1.122000 -1.670000 130.0 128.0 127.0
15.164000 1.169000 -1.668000 128.0 109.0 101.0
15.160000 1.216000 -1.668000 107.0 113.0 113.0
15.143000 1.263000 -1.666000 116.0 95.0 101.0
15.156000 1.312000 -1.668000 108.0 78.0 57.0
15.152000 1.336000 -1.668000 86.0 73.0 56.0
15.146000 1.383000 -1.668000 25.0 34.0 45.0
15.159000 1.432000 -1.670000 23.0 29.0 40.0
15.173000 1.482000 -1.672000 23.0 38.0 42.0
15.172000 1.530000 -1.673000 28.0 36.0 37.0
15.165000 1.577000 -1.673000 29.0 35.0 40.0
15.167000 1.602000 -1.673000 31.0 34.0 42.0
15.167000 1.650000 -1.674000 30.0 34.0 38.0
15.162000 1.697000 -1.674000 22.0 25.0 34.0
15.168000 1.746000 -1.675000 22.0 25.0 28.0
15.130000 1.838000 -1.672000 23.0 27.0 32.0
15.141000 1.888000 -1.674000 22.0 29.0 36.0
15.162000 1.915000 -1.677000 22.0 28.0 35.0
15.164000 1.964000 -1.678000 22.0 28.0 35.0
15.160000 2.011000 -1.678000 24.0 29.0 36.0
15.173000 2.062000 -1.681000 26.0 29.0 38.0
15.170000 2.110000 -1.681000 26.0 27.0 35.0
15.183000 2.160000 -1.684000 24.0 27.0 34.0
15.172000 2.208000 -1.683000 21.0 28.0 33.0
15.179000 2.233000 -1.684000 22.0 28.0 31.0
15.195000 2.284000 -1.687000 24.0 27.0 30.0
15.064000 2.313000 -1.672000 23.0 25.0 32.0
15.202000 2.383000 -1.690000 26.0 26.0 32.0
15.191000 2.430000 -1.689000 23.0 25.0 28.0
15.185000 2.478000 -1.690000 19.0 23.0 27.0
15.197000 2.529000 -1.692000 24.0 23.0 29.0
15.202000 2.555000 -1.693000 26.0 22.0 27.0
15.198000 2.603000 -1.694000 22.0 23.0 27.0
15.063000 2.628000 -1.678000 18.0 21.0 25.0
14.308000 2.542000 -1.585000 18.0 22.0 25.0
14.074000 2.545000 -1.557000 19.0 19.0 26.0
14.042000 2.585000 -1.554000 19.0 19.0 24.0
14.032000 2.629000 -1.553000 19.0 20.0 25.0
13.965000 2.639000 -1.546000 18.0 18.0 24.0
13.258000 2.547000 -1.458000 14.0 16.0 16.0
12.918000 2.523000 -1.417000 13.0 14.0 17.0
12.694000 2.521000 -1.390000 11.0 9.0 9.0
12.387000 2.499000 -1.352000 11.0 8.0 11.0
11.996000 2.459000 -1.304000 10.0 9.0 9.0
11.949000 2.469000 -1.299000 9.0 9.0 10.0
11.596000 2.433000 -1.255000 12.0 8.0 13.0
11.464000 2.443000 -1.240000 15.0 14.0 16.0
11.249000 2.433000 -1.214000 44.0 50.0 45.0
11.195000 2.458000 -1.208000 50.0 32.0 26.0
11.100000 2.474000 -1.197000 18.0 16.0 14.0
11.016000 2.491000 -1.187000 11.0 12.0 15.0
10.941000 2.492000 -1.178000 12.0 12.0 16.0
10.867000 2.511000 -1.170000 12.0 13.0 17.0
10.834000 2.539000 -1.167000 9.0 13.0 16.0
10.822000 2.573000 -1.166000 12.0 14.0 19.0
10.812000 2.606000 -1.166000 10.0 13.0 18.0
10.762000 2.630000 -1.161000 16.0 19.0 24.0
10.927000 2.689000 -1.182000 24.0 27.0 31.0
10.780000 2.688000 -1.165000 31.0 34.0 35.0
10.771000 2.722000 -1.165000 32.0 34.0 41.0
10.767000 2.757000 -1.165000 30.0 35.0 38.0
10.750000 2.788000 -1.164000 32.0 33.0 35.0
10.745000 2.823000 -1.165000 28.0 29.0 30.0
10.742000 2.859000 -1.165000 29.0 29.0 33.0
10.732000 2.874000 -1.165000 26.0 24.0 30.0
10.740000 2.912000 -1.167000 23.0 27.0 26.0
10.735000 2.947000 -1.167000 24.0 25.0 26.0
10.723000 2.980000 -1.167000 24.0 26.0 27.0
10.716000 3.014000 -1.167000 25.0 26.0 28.0
10.718000 3.051000 -1.169000 27.0 25.0 27.0
10.733000 3.092000 -1.172000 23.0 24.0 28.0
10.713000 3.105000 -1.170000 23.0 25.0 29.0
10.718000 3.143000 -1.172000 25.0 25.0 25.0
10.712000 3.178000 -1.173000 23.0 25.0 26.0
10.715000 3.215000 -1.174000 23.0 26.0 26.0
10.718000 3.253000 -1.176000 23.0 24.0 27.0
10.721000 3.291000 -1.178000 22.0 23.0 24.0
10.715000 3.326000 -1.178000 22.0 24.0 26.0
10.721000 3.346000 -1.180000 29.0 23.0 26.0
10.714000 3.381000 -1.180000 21.0 25.0 29.0
10.707000 3.416000 -1.181000 24.0 24.0 32.0
10.712000 3.454000 -1.182000 23.0 26.0 26.0
10.716000 3.493000 -1.184000 22.0 24.0 27.0
10.718000 3.531000 -1.186000 24.0 24.0 27.0
10.720000 3.569000 -1.188000 24.0 26.0 29.0
10.707000 3.583000 -1.187000 25.0 27.0 27.0
10.714000 3.623000 -1.189000 28.0 28.0 26.0
10.722000 3.663000 -1.192000 24.0 27.0 26.0
10.721000 3.701000 -1.193000 30.0 30.0 32.0
10.725000 3.740000 -1.195000 29.0 34.0 38.0
10.737000 3.782000 -1.198000 29.0 32.0 38.0
10.735000 3.800000 -1.199000 28.0 30.0 30.0
10.556000 3.811000 -1.179000 43.0 47.0 55.0
10.468000 3.816000 -1.169000 44.0 52.0 51.0
10.822000 3.985000 -1.217000 57.0 62.0 58.0
10.800000 4.016000 -1.215000 73.0 85.0 84.0
14.026000 5.274000 -1.640000 60.0 61.0 67.0
14.016000 5.295000 -1.640000 88.0 102.0 88.0
13.983000 5.333000 -1.638000 165.0 168.0 149.0
13.960000 5.374000 -1.637000 159.0 161.0 170.0
13.925000 5.411000 -1.635000 166.0 160.0 144.0
13.910000 5.456000 -1.635000 165.0 163.0 155.0
13.878000 5.493000 -1.633000 151.0 152.0 155.0
13.852000 5.508000 -1.631000 156.0 166.0 158.0
13.804000 5.539000 -1.627000 161.0 160.0 161.0
13.781000 5.580000 -1.626000 156.0 156.0 137.0
13.741000 5.615000 -1.623000 154.0 145.0 135.0
13.766000 5.675000 -1.629000 153.0 147.0 133.0
13.671000 5.686000 -1.618000 150.0 144.0 132.0
13.684000 5.742000 -1.623000 154.0 151.0 139.0
13.678000 5.765000 -1.623000 166.0 150.0 140.0
13.606000 5.785000 -1.616000 158.0 154.0 146.0
13.576000 5.823000 -1.614000 169.0 161.0 146.0
13.625000 5.895000 -1.623000 151.0 145.0 148.0
13.605000 5.937000 -1.623000 163.0 151.0 135.0
13.581000 5.977000 -1.622000 154.0 140.0 127.0
13.542000 6.011000 -1.620000 160.0 144.0 128.0
13.504000 6.019000 -1.616000 151.0 144.0 128.0
13.497000 6.067000 -1.618000 143.0 136.0 137.0
13.462000 6.102000 -1.615000 176.0 145.0 135.0
13.443000 6.145000 -1.615000 150.0 145.0 139.0
13.407000 6.179000 -1.613000 162.0 165.0 151.0
13.393000 6.224000 -1.614000 145.0 156.0 151.0
13.384000 6.271000 -1.615000 160.0 154.0 149.0
13.283000 6.249000 -1.603000 160.0 158.0 145.0
13.238000 6.278000 -1.599000 169.0 170.0 155.0
13.113000 6.269000 -1.585000 170.0 159.0 154.0
13.039000 6.284000 -1.578000 169.0 162.0 149.0
12.982000 6.307000 -1.573000 136.0 139.0 123.0
12.907000 6.321000 -1.565000 181.0 191.0 148.0
12.884000 6.335000 -1.563000 238.0 244.0 150.0
12.840000 6.363000 -1.560000 233.0 207.0 128.0
12.717000 6.352000 -1.546000 157.0 158.0 143.0
12.656000 6.371000 -1.540000 115.0 129.0 176.0
12.576000 6.380000 -1.532000 184.0 217.0 193.0
12.480000 6.380000 -1.521000 163.0 131.0 57.0
12.486000 6.433000 -1.525000 220.0 143.0 102.0
12.384000 6.405000 -1.512000 202.0 144.0 122.0
12.332000 6.428000 -1.508000 111.0 118.0 120.0
12.303000 6.462000 -1.507000 107.0 54.0 29.0
12.215000 6.464000 -1.497000 43.0 47.0 37.0
12.166000 6.487000 -1.493000 41.0 54.0 43.0
12.027000 6.461000 -1.477000 27.0 87.0 55.0
12.036000 6.515000 -1.481000 100.0 98.0 60.0
11.989000 6.514000 -1.476000 77.0 77.0 61.0
11.978000 6.557000 -1.477000 43.0 54.0 48.0
11.952000 6.591000 -1.476000 48.0 69.0 43.0
11.846000 6.581000 -1.464000 78.0 93.0 47.0
12.007000 6.721000 -1.490000 65.0 96.0 65.0
11.991000 6.761000 -1.491000 89.0 108.0 61.0
11.880000 6.748000 -1.478000 96.0 140.0 79.0
11.878000 6.771000 -1.479000 108.0 129.0 84.0
11.850000 6.805000 -1.478000 106.0 122.0 76.0
11.835000 6.846000 -1.479000 109.0 130.0 108.0
11.877000 6.920000 -1.488000 145.0 172.0 91.0
11.773000 6.909000 -1.477000 126.0 138.0 76.0
11.736000 6.937000 -1.474000 145.0 147.0 71.0
11.802000 7.001000 -1.485000 117.0 139.0 70.0
11.654000 6.963000 -1.467000 73.0 130.0 75.0
11.647000 7.008000 -1.470000 86.0 110.0 84.0
11.532000 6.988000 -1.456000 99.0 113.0 69.0
11.608000 7.085000 -1.470000 76.0 123.0 72.0
11.189000 6.876000 -1.413000 60.0 99.0 65.0
11.577000 7.166000 -1.472000 77.0 118.0 59.0
11.613000 7.213000 -1.479000 78.0 103.0 50.0
11.573000 7.239000 -1.477000 101.0 140.0 68.0
11.621000 7.320000 -1.487000 88.0 159.0 60.0
11.553000 7.328000 -1.480000 81.0 111.0 72.0
11.469000 7.325000 -1.472000 72.0 105.0 66.0
11.218000 7.214000 -1.438000 87.0 105.0 58.0
11.548000 7.453000 -1.488000 84.0 115.0 59.0
11.561000 7.513000 -1.493000 119.0 126.0 69.0
11.576000 7.574000 -1.499000 98.0 135.0 64.0
11.548000 7.608000 -1.499000 100.0 138.0 74.0
11.315000 7.505000 -1.468000 101.0 130.0 68.0
11.126000 7.430000 -1.443000 87.0 142.0 71.0
11.060000 7.436000 -1.437000 88.0 120.0 96.0
11.040000 7.448000 -1.436000 93.0 113.0 60.0
10.882000 7.391000 -1.416000 69.0 114.0 46.0
11.173000 7.640000 -1.463000 87.0 113.0 64.0
10.785000 7.424000 -1.408000 79.0 127.0 66.0
10.413000 7.215000 -1.356000 60.0 125.0 64.0
10.403000 7.257000 -1.358000 128.0 164.0 101.0
10.757000 7.555000 -1.415000 131.0 149.0 58.0
10.693000 7.535000 -1.407000 100.0 98.0 64.0
10.747000 7.624000 -1.418000 72.0 104.0 53.0
10.941000 7.814000 -1.451000 70.0 110.0 70.0
10.238000 7.359000 -1.349000 69.0 90.0 38.0
10.845000 7.849000 -1.444000 66.0 81.0 41.0
10.706000 7.799000 -1.427000 69.0 81.0 38.0
10.821000 7.935000 -1.448000 51.0 83.0 41.0
10.808000 7.952000 -1.448000 63.0 80.0 39.0
10.731000 7.947000 -1.440000 56.0 90.0 47.0
10.623000 7.919000 -1.427000 85.0 111.0 48.0
10.546000 7.913000 -1.419000 74.0 114.0 55.0
10.524000 7.948000 -1.420000 84.0 111.0 48.0
10.445000 7.940000 -1.412000 42.0 69.0 55.0
10.499000 8.034000 -1.424000 27.0 44.0 30.0
10.538000 8.090000 -1.432000 29.0 79.0 44.0
10.483000 8.100000 -1.427000 40.0 38.0 32.0
10.323000 8.028000 -1.406000 14.0 25.0 20.0
10.355000 8.106000 -1.415000 17.0 39.0 23.0
10.143000 7.990000 -1.386000 17.0 30.0 19.0
10.166000 8.061000 -1.394000 14.0 26.0 18.0
10.196000 8.137000 -1.402000 27.0 35.0 21.0
10.201000 8.167000 -1.405000 26.0 38.0 25.0
10.298000 8.299000 -1.424000 23.0 41.0 21.0
10.203000 8.275000 -1.414000 30.0 42.0 23.0
10.060000 8.211000 -1.395000 63.0 74.0 46.0
10.100000 8.297000 -1.405000 52.0 66.0 43.0
10.080000 8.334000 -1.406000 24.0 28.0 26.0
10.070000 8.352000 -1.407000 25.0 29.0 22.0
10.006000 8.352000 -1.401000 13.0 21.0 13.0
9.217000 -7.584000 -1.266000 128.0 58.0 69.0
9.451000 -7.727000 -1.299000 144.0 93.0 69.0
9.502000 -7.718000 -1.304000 255.0 57.0 30.0
9.605000 -7.752000 -1.316000 255.0 49.0 30.0
9.645000 -7.734000 -1.318000 255.0 52.0 35.0
7.892000 -6.314000 -1.042000 255.0 54.0 40.0
7.911000 -6.288000 -1.041000 255.0 71.0 52.0
7.902000 -6.241000 -1.037000 255.0 85.0 87.0
9.884000 -7.748000 -1.343000 255.0 60.0 39.0
9.962000 -7.758000 -1.351000 255.0 94.0 82.0
10.039000 -7.768000 -1.359000 90.0 79.0 50.0
10.158000 -7.809000 -1.374000 51.0 83.0 56.0
10.108000 -7.745000 -1.364000 71.0 96.0 58.0
10.103000 -7.692000 -1.360000 47.0 79.0 49.0
10.108000 -7.646000 -1.357000 68.0 91.0 55.0
10.078000 -7.573000 -1.348000 70.0 91.0 57.0
9.989000 -7.458000 -1.331000 67.0 92.0 57.0
10.011000 -7.425000 -1.331000 73.0 95.0 68.0
10.043000 -7.424000 -1.334000 69.0 99.0 53.0
10.081000 -7.403000 -1.336000 58.0 93.0 50.0
10.103000 -7.371000 -1.336000 58.0 82.0 48.0
10.132000 -7.343000 -1.337000 54.0 89.0 60.0
10.139000 -7.300000 -1.335000 76.0 89.0 71.0
10.421000 -7.452000 -1.374000 64.0 87.0 74.0
8.771000 -6.237000 -1.122000 64.0 92.0 61.0
10.224000 -7.240000 -1.339000 61.0 96.0 57.0
10.266000 -7.221000 -1.342000 67.0 80.0 51.0
10.329000 -7.217000 -1.348000 71.0 83.0 49.0
10.368000 -7.196000 -1.350000 64.0 81.0 62.0
10.358000 -7.141000 -1.345000 68.0 88.0 75.0
10.377000 -7.106000 -1.345000 94.0 100.0 99.0
10.389000 -7.067000 -1.343000 113.0 129.0 125.0
10.341000 -7.010000 -1.335000 126.0 139.0 123.0
10.371000 -6.983000 -1.336000 149.0 131.0 110.0
10.435000 -6.978000 -1.342000 145.0 160.0 137.0
10.438000 -6.933000 -1.339000 243.0 200.0 161.0
10.437000 -6.885000 -1.336000 230.0 184.0 146.0
10.427000 -6.832000 -1.331000 186.0 170.0 153.0
10.467000 -6.811000 -1.334000 200.0 188.0 160.0
10.486000 -6.800000 -1.335000 176.0 164.0 146.0
10.522000 -6.777000 -1.337000 165.0 162.0 143.0
10.548000 -6.747000 -1.338000 178.0 174.0 143.0
10.514000 -6.679000 -1.330000 153.0 168.0 151.0
10.602000 -6.688000 -1.340000 204.0 179.0 161.0
10.655000 -6.674000 -1.344000 218.0 197.0 173.0
10.669000 -6.660000 -1.345000 212.0 204.0 180.0
10.643000 -6.597000 -1.338000 254.0 220.0 224.0
10.716000 -6.596000 -1.346000 233.0 232.0 236.0
10.758000 -6.575000 -1.349000 217.0 213.0 206.0
10.798000 -6.553000 -1.351000 209.0 194.0 188.0
10.796000 -6.506000 -1.348000 215.0 202.0 197.0
10.422000 -6.237000 -1.292000 209.0 201.0 178.0
10.417000 -6.212000 -1.290000 200.0 180.0 146.0
10.840000 -6.417000 -1.347000 239.0 234.0 203.0
10.934000 -6.426000 -1.358000 251.0 236.0 208.0
10.976000 -6.404000 -1.361000 255.0 237.0 199.0
10.869000 -6.296000 -1.343000 253.0 222.0 204.0
11.073000 -6.368000 -1.369000 247.0 224.0 199.0
11.164000 -6.373000 -1.379000 253.0 231.0 212.0
11.163000 -6.350000 -1.377000 255.0 234.0 222.0
11.265000 -6.360000 -1.389000 227.0 226.0 211.0
11.285000 -6.325000 -1.389000 225.0 205.0 191.0
11.131000 -6.193000 -1.365000 255.0 232.0 227.0
11.117000 -6.140000 -1.360000 254.0 249.0 244.0
11.156000 -6.115000 -1.363000 253.0 246.0 234.0
11.219000 -6.127000 -1.370000 253.0 240.0 226.0
11.298000 -6.124000 -1.378000 249.0 240.0 223.0
11.376000 -6.120000 -1.387000 233.0 237.0 215.0
11.446000 -6.112000 -1.394000 197.0 209.0 142.0
11.717000 -6.208000 -1.429000 43.0 43.0 48.0
7.443000 -3.924000 -0.834000 255.0 213.0 197.0
7.462000 -3.905000 -0.835000 241.0 213.0 179.0
7.292000 -3.802000 -0.810000 244.0 216.0 174.0
7.408000 -3.832000 -0.825000 53.0 76.0 75.0
7.395000 -3.796000 -0.821000 61.0 66.0 65.0
7.367000 -3.753000 -0.816000 55.0 61.0 56.0
7.342000 -3.611000 -0.805000 18.0 20.0 22.0
7.476000 -3.618000 -0.820000 16.0 20.0 21.0
7.317000 -3.471000 -0.795000 12.0 14.0 18.0
7.306000 -3.438000 -0.792000 32.0 30.0 33.0
7.310000 -3.412000 -0.791000 22.0 27.0 40.0
7.322000 -3.389000 -0.791000 129.0 124.0 125.0
7.308000 -3.355000 -0.788000 65.0 84.0 126.0
7.315000 -3.330000 -0.787000 9.0 92.0 115.0
7.314000 -3.289000 -0.785000 120.0 92.0 123.0
7.328000 -3.267000 -0.786000 77.0 59.0 66.0
7.318000 -3.235000 -0.783000 120.0 137.0 133.0
7.335000 -3.215000 -0.784000 67.0 33.0 21.0
7.336000 -3.189000 -0.783000 58.0 103.0 109.0
7.334000 -3.160000 -0.781000 106.0 119.0 87.0
7.338000 -3.135000 -0.780000 28.0 61.0 50.0
7.339000 -3.122000 -0.780000 57.0 57.0 92.0
7.349000 -3.098000 -0.780000 77.0 107.0 119.0
7.338000 -3.067000 -0.777000 86.0 106.0 119.0
7.335000 -3.039000 -0.776000 54.0 62.0 85.0
7.348000 -3.017000 -0.776000 105.0 96.0 98.0
7.356000 -2.993000 -0.776000 85.0 114.0 118.0
7.343000 -2.961000 -0.773000 46.0 48.0 30.0
7.346000 -2.949000 -0.773000 29.0 66.0 112.0
7.341000 -2.920000 -0.771000 25.0 41.0 85.0
7.346000 -2.896000 -0.770000 23.0 34.0 43.0
7.366000 -2.877000 -0.772000 15.0 17.0 23.0
7.358000 -2.847000 -0.769000 28.0 25.0 33.0
7.367000 -2.824000 -0.769000 25.0 27.0 34.0
7.368000 -2.811000 -0.769000 25.0 20.0 21.0
7.384000 -2.791000 -0.770000 25.0 20.0 23.0
7.384000 -2.764000 -0.769000 27.0 18.0 24.0
7.390000 -2.740000 -0.768000 20.0 20.0 24.0
7.399000 -2.717000 -0.768000 19.0 22.0 27.0
7.402000 -2.692000 -0.768000 18.0 23.0 26.0
7.465000 -2.675000 -0.774000 23.0 23.0 32.0
7.466000 -2.649000 -0.773000 27.0 30.0 34.0
7.465000 -2.622000 -0.772000 33.0 30.0 37.0
7.490000 -2.604000 -0.774000 116.0 31.0 23.0
7.502000 -2.582000 -0.775000 246.0 134.0 131.0
7.514000 -2.560000 -0.775000 249.0 91.0 100.0
7.539000 -2.542000 -0.777000 255.0 247.0 251.0
7.936000 -2.481000 -0.822000 31.0 31.0 24.0
10.212000 -2.511000 -1.092000 72.0 79.0 87.0
11.787000 -2.816000 -1.289000 119.0 185.0 196.0
11.793000 -2.779000 -1.288000 21.0 18.0 16.0
11.787000 -2.738000 -1.286000 8.0 8.0 11.0
11.791000 -2.700000 -1.286000 10.0 8.0 12.0
11.790000 -2.680000 -1.285000 10.0 8.0 10.0
11.806000 -2.645000 -1.286000 11.0 7.0 10.0
11.816000 -2.608000 -1.286000 10.0 8.0 10.0
11.820000 -2.570000 -1.286000 8.0 8.0 12.0
11.824000 -2.532000 -1.285000 9.0 8.0 8.0
11.844000 -2.498000 -1.287000 9.0 8.0 10.0
11.840000 -2.477000 -1.286000 10.0 8.0 11.0
11.861000 -2.443000 -1.288000 10.0 9.0 11.0
11.875000 -2.407000 -1.288000 9.0 8.0 8.0
11.879000 -2.369000 -1.288000 11.0 10.0 8.0
11.909000 -2.336000 -1.291000 9.0 9.0 11.0
11.940000 -2.303000 -1.294000 8.0 9.0 12.0
11.955000 -2.267000 -1.295000 13.0 13.0 15.0
11.976000 -2.251000 -1.297000 16.0 15.0 20.0
12.131000 -2.241000 -1.315000 17.0 17.0 19.0
12.392000 -2.248000 -1.347000 18.0 20.0 21.0
12.562000 -2.238000 -1.367000 27.0 22.0 18.0
12.659000 -2.214000 -1.378000 34.0 51.0 65.0
12.771000 -2.192000 -1.392000 56.0 130.0 182.0
12.967000 -2.204000 -1.415000 95.0 146.0 175.0
13.158000 -2.194000 -1.438000 188.0 181.0 200.0
15.061000 -2.410000 -1.673000 255.0 255.0 249.0
15.145000 -2.375000 -1.683000 230.0 244.0 234.0
14.823000 -2.277000 -1.642000 220.0 239.0 213.0
14.761000 -2.220000 -1.633000 255.0 253.0 252.0
14.755000 -2.196000 -1.632000 255.0 255.0 255.0
14.752000 -2.148000 -1.631000 255.0 255.0 255.0
14.804000 -2.108000 -1.637000 255.0 255.0 255.0
15.245000 -2.121000 -1.690000 255.0 255.0 245.0
15.273000 -2.076000 -1.693000 255.0 243.0 247.0
15.282000 -2.028000 -1.693000 255.0 255.0 253.0
15.321000 -1.985000 -1.697000 255.0 253.0 230.0
15.332000 -1.962000 -1.698000 255.0 240.0 212.0
15.348000 -1.915000 -1.700000 201.0 255.0 255.0
15.384000 -1.870000 -1.703000 255.0 255.0 255.0
15.405000 -1.823000 -1.705000 225.0 220.0 216.0
15.409000 -1.775000 -1.705000 228.0 234.0 202.0
15.448000 -1.730000 -1.709000 224.0 233.0 219.0
15.437000 -1.704000 -1.707000 198.0 239.0 218.0
15.535000 -1.666000 -1.719000 151.0 95.0 113.0
15.544000 -1.617000 -1.719000 129.0 113.0 83.0
15.555000 -1.569000 -1.720000 207.0 186.0 162.0
15.586000 -1.523000 -1.723000 215.0 200.0 174.0
15.677000 -1.482000 -1.734000 155.0 156.0 146.0
15.672000 -1.432000 -1.733000 166.0 163.0 147.0
15.654000 -1.405000 -1.730000 166.0 172.0 163.0
15.633000 -1.354000 -1.727000 185.0 171.0 155.0
15.621000 -1.303000 -1.725000 214.0 192.0 149.0
15.613000 -1.253000 -1.724000 178.0 151.0 137.0
15.584000 -1.202000 -1.720000 197.0 153.0 141.0
15.583000 -1.153000 -1.719000 182.0 184.0 159.0
15.543000 -1.101000 -1.714000 215.0 193.0 155.0
15.539000 -1.076000 -1.713000 199.0 174.0 155.0
15.519000 -1.025000 -1.710000 149.0 160.0 151.0
15.550000 -0.978000 -1.714000 140.0 131.0 128.0
15.517000 -0.927000 -1.709000 133.0 137.0 137.0
15.508000 -0.878000 -1.708000 131.0 141.0 130.0
15.501000 -0.829000 -1.706000 140.0 131.0 132.0
15.497000 -0.780000 -1.706000 131.0 136.0 130.0
15.490000 -0.755000 -1.705000 117.0 125.0 132.0
15.485000 -0.706000 -1.704000 126.0 131.0 137.0
15.473000 -0.657000 -1.702000 122.0 135.0 131.0
15.469000 -0.608000 -1.701000 116.0 131.0 123.0
15.467000 -0.559000 -1.701000 115.0 127.0 140.0
15.431000 -0.509000 -1.696000 111.0 123.0 126.0
15.450000 -0.486000 -1.698000 113.0 117.0 117.0
15.429000 -0.437000 -1.696000 120.0 135.0 128.0
15.431000 -0.388000 -1.696000 127.0 131.0 131.0
15.404000 -0.339000 -1.692000 127.0 131.0 124.0
15.423000 -0.291000 -1.695000 102.0 121.0 124.0
15.402000 -0.242000 -1.692000 122.0 124.0 122.0
15.400000 -0.194000 -1.692000 118.0 114.0 119.0
15.397000 -0.170000 -1.691000 123.0 124.0 121.0
15.385000 -0.121000 -1.690000 119.0 135.0 125.0
15.372000 -0.073000 -1.688000 149.0 132.0 135.0
15.348000 -0.025000 -1.685000 129.0 138.0 140.0
14.676000 0.041000 -1.678000 131.0 135.0 131.0
14.654000 0.087000 -1.675000 135.0 142.0 142.0
14.677000 0.133000 -1.678000 135.0 141.0 134.0
14.653000 0.179000 -1.675000 140.0 138.0 145.0
14.661000 0.202000 -1.676000 139.0 135.0 123.0
14.658000 0.248000 -1.676000 135.0 124.0 127.0
14.614000 0.293000 -1.670000 145.0 139.0 132.0
14.625000 0.339000 -1.672000 132.0 138.0 128.0
14.627000 0.385000 -1.672000 114.0 133.0 129.0
14.604000 0.431000 -1.669000 129.0 131.0 135.0
14.587000 0.476000 -1.667000 136.0 135.0 137.0
14.578000 0.499000 -1.666000 162.0 141.0 132.0
14.571000 0.544000 -1.666000 148.0 139.0 146.0
14.579000 0.590000 -1.667000 145.0 143.0 137.0
14.569000 0.636000 -1.666000 133.0 121.0 122.0
14.553000 0.681000 -1.664000 126.0 133.0 125.0
14.549000 0.727000 -1.664000 126.0 130.0 121.0
14.550000 0.773000 -1.664000 122.0 123.0 112.0
14.547000 0.795000 -1.664000 136.0 127.0 122.0
14.533000 0.840000 -1.663000 120.0 121.0 129.0
14.554000 0.887000 -1.666000 119.0 124.0 127.0
14.545000 0.933000 -1.665000 114.0 122.0 122.0
14.548000 0.979000 -1.666000 115.0 122.0 128.0
14.531000 1.024000 -1.664000 121.0 129.0 126.0
14.523000 1.046000 -1.663000 118.0 120.0 126.0
14.522000 1.092000 -1.663000 102.0 117.0 125.0
14.522000 1.138000 -1.664000 114.0 93.0 87.0
14.515000 1.183000 -1.663000 26.0 31.0 39.0
14.505000 1.228000 -1.663000 25.0 32.0 43.0
14.521000 1.275000 -1.665000 25.0 32.0 40.0
14.511000 1.320000 -1.664000 27.0 29.0 38.0
14.515000 1.344000 -1.665000 22.0 29.0 36.0
14.528000 1.391000 -1.667000 24.0 30.0 37.0
14.522000 1.436000 -1.667000 24.0 28.0 41.0
14.515000 1.482000 -1.667000 22.0 29.0 34.0
14.524000 1.529000 -1.669000 24.0 27.0 41.0
14.520000 1.574000 -1.669000 21.0 27.0 36.0
14.526000 1.621000 -1.670000 20.0 26.0 37.0
14.536000 1.646000 -1.672000 21.0 27.0 36.0
14.515000 1.689000 -1.670000 20.0 25.0 35.0
14.529000 1.737000 -1.672000 22.0 29.0 37.0
14.521000 1.783000 -1.672000 21.0 28.0 41.0
14.528000 1.830000 -1.673000 24.0 26.0 32.0
14.528000 1.876000 -1.674000 21.0 27.0 33.0
14.528000 1.923000 -1.675000 23.0 28.0 33.0
14.538000 1.947000 -1.677000 22.0 26.0 34.0
14.536000 1.993000 -1.677000 25.0 30.0 37.0
14.543000 2.041000 -1.679000 29.0 30.0 34.0
14.555000 2.089000 -1.681000 25.0 28.0 34.0
14.550000 2.135000 -1.682000 23.0 26.0 33.0
14.545000 2.181000 -1.682000 26.0 26.0 31.0
14.538000 2.227000 -1.682000 21.0 25.0 33.0
14.552000 2.252000 -1.684000 23.0 25.0 31.0
14.547000 2.298000 -1.684000 22.0 24.0 30.0
14.550000 2.346000 -1.686000 21.0 26.0 26.0
14.564000 2.395000 -1.688000 24.0 26.0 31.0
14.558000 2.441000 -1.689000 20.0 24.0 33.0
14.564000 2.489000 -1.690000 21.0 25.0 28.0
14.400000 2.484000 -1.670000 23.0 24.0 28.0
14.359000 2.524000 -1.665000 22.0 22.0 25.0
14.062000 2.518000 -1.628000 18.0 23.0 26.0
14.030000 2.558000 -1.625000 19.0 21.0 26.0
14.030000 2.603000 -1.626000 17.0 21.0 25.0
14.012000 2.645000 -1.624000 16.0 21.0 25.0
14.041000 2.696000 -1.629000 18.0 19.0 25.0
14.771000 2.859000 -1.725000 17.0 18.0 23.0
12.717000 2.507000 -1.459000 15.0 15.0 19.0
12.431000 2.492000 -1.422000 13.0 15.0 17.0
11.974000 2.440000 -1.364000 14.0 14.0 14.0
11.756000 2.435000 -1.336000 12.0 12.0 14.0
11.479000 2.416000 -1.301000 9.0 11.0 11.0
11.339000 2.405000 -1.283000 10.0 12.0 14.0
11.219000 2.417000 -1.269000 28.0 47.0 59.0
11.103000 2.428000 -1.254000 41.0 46.0 49.0
11.035000 2.450000 -1.246000 22.0 15.0 10.0
10.944000 2.466000 -1.236000 11.0 13.0 14.0
10.874000 2.487000 -1.227000 11.0 12.0 16.0
10.810000 2.508000 -1.220000 12.0 12.0 17.0
10.756000 2.513000 -1.214000 11.0 12.0 15.0
10.732000 2.543000 -1.211000 11.0 12.0 17.0
10.721000 2.576000 -1.211000 12.0 11.0 19.0
10.699000 2.607000 -1.209000 11.0 13.0 15.0
10.689000 2.640000 -1.209000 11.0 11.0 17.0
10.679000 2.673000 -1.209000 17.0 15.0 21.0
10.684000 2.710000 -1.210000 15.0 17.0 24.0
10.670000 2.724000 -1.209000 15.0 16.0 20.0
10.661000 2.758000 -1.209000 15.0 15.0 18.0
10.639000 2.788000 -1.207000 15.0 16.0 19.0
10.640000 2.823000 -1.209000 15.0 15.0 18.0
10.627000 2.856000 -1.208000 14.0 14.0 22.0
10.616000 2.889000 -1.208000 14.0 14.0 18.0
10.614000 2.924000 -1.209000 15.0 14.0 19.0
10.614000 2.942000 -1.209000 16.0 16.0 19.0
10.608000 2.976000 -1.210000 16.0 16.0 18.0
10.610000 3.013000 -1.211000 16.0 18.0 18.0
10.603000 3.047000 -1.212000 18.0 14.0 17.0
10.604000 3.083000 -1.213000 23.0 17.0 15.0
10.591000 3.115000 -1.213000 14.0 14.0 18.0
10.589000 3.151000 -1.214000 14.0 15.0 19.0
10.586000 3.168000 -1.214000 15.0 15.0 18.0
10.574000 3.201000 -1.214000 12.0 14.0 16.0
10.600000 3.245000 -1.219000 15.0 17.0 18.0
10.588000 3.278000 -1.218000 16.0 17.0 19.0
10.585000 3.313000 -1.219000 16.0 17.0 19.0
10.591000 3.352000 -1.222000 19.0 18.0 18.0
10.586000 3.368000 -1.222000 20.0 18.0 18.0
10.602000 3.410000 -1.225000 23.0 21.0 21.0
10.610000 3.450000 -1.228000 20.0 20.0 19.0
10.593000 3.481000 -1.227000 14.0 17.0 20.0
10.594000 3.518000 -1.228000 13.0 15.0 19.0
10.600000 3.557000 -1.231000 14.0 18.0 21.0
10.594000 3.592000 -1.232000 15.0 16.0 18.0
10.607000 3.615000 -1.234000 17.0 18.0 20.0
10.607000 3.652000 -1.236000 14.0 20.0 23.0
10.611000 3.691000 -1.238000 18.0 19.0 21.0
10.610000 3.728000 -1.239000 21.0 20.0 23.0
10.626000 3.771000 -1.243000 21.0 21.0 20.0
10.626000 3.809000 -1.244000 23.0 24.0 23.0
10.642000 3.833000 -1.247000 15.0 17.0 23.0
10.669000 3.881000 -1.253000 14.0 18.0 22.0
10.694000 3.928000 -1.258000 16.0 21.0 24.0
13.482000 4.993000 -1.639000 23.0 28.0 35.0
13.460000 5.033000 -1.639000 65.0 64.0 60.0
13.445000 5.075000 -1.639000 136.0 135.0 103.0
13.390000 5.103000 -1.633000 153.0 148.0 142.0
13.313000 5.097000 -1.624000 152.0 139.0 142.0
13.332000 5.153000 -1.629000 169.0 153.0 147.0
13.364000 5.213000 -1.635000 146.0 156.0 144.0
13.336000 5.251000 -1.634000 149.0 146.0 131.0
13.314000 5.291000 -1.633000 141.0 144.0 141.0
13.281000 5.326000 -1.631000 142.0 143.0 138.0
13.255000 5.364000 -1.630000 140.0 151.0 150.0
13.230000 5.378000 -1.627000 156.0 151.0 143.0
13.208000 5.417000 -1.627000 150.0 155.0 150.0
13.178000 5.453000 -1.625000 182.0 164.0 148.0
13.146000 5.489000 -1.623000 164.0 155.0 150.0
13.127000 5.529000 -1.622000 154.0 155.0 147.0
13.098000 5.566000 -1.621000 159.0 160.0 153.0
13.090000 5.611000 -1.622000 158.0 154.0 141.0
13.072000 5.627000 -1.621000 162.0 146.0 136.0
13.029000 5.657000 -1.617000 154.0 156.0 147.0
13.016000 5.701000 -1.618000 173.0 161.0 150.0
12.995000 5.740000 -1.618000 163.0 156.0 153.0
12.967000 5.777000 -1.616000 162.0 165.0 161.0
12.935000 5.811000 -1.614000 161.0 166.0 161.0
12.922000 5.830000 -1.614000 167.0 165.0 161.0
12.907000 5.872000 -1.614000 161.0 164.0 154.0
12.871000 5.904000 -1.612000 157.0 153.0 148.0
12.845000 5.941000 -1.611000 163.0 170.0 152.0
12.832000 5.984000 -1.612000 166.0 170.0 169.0
12.813000 6.024000 -1.612000 183.0 184.0 167.0
12.778000 6.057000 -1.609000 186.0 196.0 180.0
12.755000 6.071000 -1.607000 169.0 165.0 162.0
12.666000 6.078000 -1.598000 188.0 205.0 197.0
12.685000 6.136000 -1.603000 158.0 143.0 110.0
12.646000 6.166000 -1.600000 155.0 155.0 139.0
12.628000 6.206000 -1.600000 156.0 152.0 133.0
12.612000 6.248000 -1.601000 167.0 160.0 143.0
12.539000 6.261000 -1.593000 141.0 128.0 134.0
