# .PCD v0.7 - Point Cloud Data file format
VERSION 0.7
FIELDS x y z rgb
SIZE 4 4 4 4
TYPE F F F F
COUNT 1 1 1 1
WIDTH 1063
HEIGHT 1
POINTS 1063
DATA ascii
28.590000 4.935000 -1.592000 68.0 53.0 48.0
28.205000 4.960000 -1.569000 79.0 67.0 59.0
27.820000 4.982000 -1.546000 80.0 66.0 58.0
27.459000 5.006000 -1.524000 92.0 70.0 60.0
27.090000 4.982000 -1.501000 87.0 76.0 78.0
26.740000 5.005000 -1.480000 91.0 80.0 71.0
26.386999 5.024000 -1.459000 86.0 74.0 67.0
26.070999 5.049000 -1.440000 90.0 75.0 65.0
25.540001 5.029000 -1.408000 89.0 75.0 68.0
25.415001 5.087000 -1.401000 51.0 51.0 66.0
25.100000 5.105000 -1.382000 82.0 69.0 64.0
24.790001 5.083000 -1.363000 93.0 75.0 70.0
24.483000 5.100000 -1.344000 105.0 85.0 75.0
24.198000 5.119000 -1.327000 114.0 91.0 79.0
23.930000 5.141000 -1.311000 117.0 95.0 89.0
23.636999 5.155000 -1.294000 117.0 96.0 92.0
23.379000 5.176000 -1.279000 123.0 101.0 92.0
23.122999 5.195000 -1.263000 112.0 106.0 95.0
22.875000 5.177000 -1.248000 114.0 105.0 99.0
22.615999 5.193000 -1.233000 118.0 103.0 90.0
22.378000 5.212000 -1.219000 121.0 103.0 93.0
22.115999 5.224000 -1.203000 118.0 102.0 97.0
21.888000 5.243000 -1.190000 118.0 100.0 94.0
21.649000 5.257000 -1.175000 121.0 98.0 96.0
21.424999 5.274000 -1.162000 113.0 96.0 89.0
21.212999 5.257000 -1.149000 122.0 96.0 83.0
20.999001 5.273000 -1.137000 118.0 101.0 92.0
20.771999 5.285000 -1.123000 117.0 102.0 92.0
20.566000 5.302000 -1.111000 119.0 105.0 92.0
20.344000 5.312000 -1.098000 113.0 101.0 94.0
20.152000 5.330000 -1.087000 110.0 101.0 92.0
19.936001 5.339000 -1.074000 115.0 99.0 95.0
19.761999 5.326000 -1.063000 119.0 99.0 100.0
19.559000 5.337000 -1.051000 116.0 95.0 89.0
18.565001 5.127000 -0.989000 111.0 95.0 84.0
18.447001 5.157000 -0.982000 107.0 94.0 84.0
18.278999 5.171000 -0.972000 110.0 104.0 106.0
18.216000 5.216000 -0.969000 93.0 88.0 109.0
18.209000 5.276000 -0.970000 35.0 35.0 41.0
18.202999 5.305000 -0.970000 37.0 35.0 35.0
18.049999 5.322000 -0.961000 37.0 30.0 34.0
17.913000 5.342000 -0.954000 29.0 22.0 20.0
17.747000 5.353000 -0.944000 33.0 24.0 28.0
17.606001 5.371000 -0.936000 30.0 26.0 29.0
17.422001 5.374000 -0.925000 32.0 31.0 33.0
17.245001 5.379000 -0.915000 43.0 41.0 44.0
16.927999 5.367000 -0.896000 42.0 38.0 41.0
16.785999 5.380000 -0.888000 50.0 43.0 47.0
16.625999 5.386000 -0.878000 39.0 33.0 41.0
16.486000 5.398000 -0.870000 37.0 29.0 31.0
16.340000 5.407000 -0.862000 35.0 32.0 36.0
16.202000 5.418000 -0.854000 48.0 34.0 30.0
16.014999 5.411000 -0.843000 46.0 37.0 40.0
15.587000 5.293000 -0.816000 46.0 37.0 38.0
15.457000 5.303000 -0.808000 48.0 67.0 74.0
15.331000 5.313000 -0.801000 106.0 101.0 100.0
15.196000 5.319000 -0.793000 103.0 104.0 109.0
15.066000 5.327000 -0.786000 107.0 102.0 106.0
14.938000 5.334000 -0.779000 106.0 101.0 110.0
14.828000 5.347000 -0.772000 107.0 106.0 101.0
14.705000 5.329000 -0.765000 108.0 100.0 104.0
14.587000 5.338000 -0.758000 106.0 104.0 105.0
14.476000 5.349000 -0.752000 103.0 102.0 104.0
14.359000 5.357000 -0.745000 107.0 101.0 104.0
14.252000 5.368000 -0.739000 105.0 104.0 103.0
14.129000 5.372000 -0.732000 105.0 102.0 102.0
14.024000 5.357000 -0.726000 106.0 101.0 104.0
13.917000 5.366000 -0.720000 104.0 104.0 102.0
13.807000 5.374000 -0.714000 103.0 101.0 105.0
13.699000 5.381000 -0.708000 101.0 104.0 99.0
13.590000 5.387000 -0.702000 101.0 103.0 105.0
13.480000 5.393000 -0.695000 102.0 103.0 105.0
13.384000 5.403000 -0.690000 102.0 98.0 101.0
13.282000 5.410000 -0.685000 104.0 100.0 105.0
13.185000 5.394000 -0.679000 104.0 100.0 107.0
13.094000 5.405000 -0.674000 98.0 97.0 102.0
12.992000 5.411000 -0.668000 99.0 99.0 101.0
12.896000 5.418000 -0.663000 95.0 99.0 99.0
12.800000 5.425000 -0.657000 100.0 97.0 100.0
12.709000 5.434000 -0.652000 106.0 98.0 103.0
12.621000 5.442000 -0.648000 94.0 100.0 103.0
12.535000 5.429000 -0.642000 103.0 98.0 102.0
12.440000 5.434000 -0.637000 101.0 97.0 103.0
12.351000 5.441000 -0.632000 96.0 100.0 102.0
12.261000 5.447000 -0.627000 98.0 97.0 100.0
12.173000 5.454000 -0.623000 96.0 99.0 101.0
12.094000 5.464000 -0.618000 94.0 98.0 99.0
11.995000 5.465000 -0.613000 99.0 99.0 100.0
11.936000 5.460000 -0.609000 101.0 99.0 104.0
11.841000 5.461000 -0.604000 99.0 96.0 108.0
11.762000 5.470000 -0.600000 97.0 94.0 105.0
11.689000 5.480000 -0.596000 94.0 101.0 103.0
11.589000 5.478000 -0.590000 98.0 95.0 92.0
11.508000 5.484000 -0.586000 98.0 97.0 96.0
11.452000 5.501000 -0.583000 98.0 95.0 101.0
11.353000 5.475000 -0.577000 96.0 97.0 96.0
11.284000 5.486000 -0.574000 101.0 97.0 102.0
11.211000 5.494000 -0.570000 96.0 99.0 102.0
11.129000 5.497000 -0.565000 102.0 102.0 104.0
11.044000 5.498000 -0.561000 103.0 102.0 105.0
10.982000 5.510000 -0.557000 99.0 101.0 107.0
10.894000 5.508000 -0.553000 101.0 99.0 106.0
10.837000 5.501000 -0.549000 101.0 101.0 98.0
10.759000 5.504000 -0.545000 102.0 98.0 106.0
10.689000 5.510000 -0.541000 101.0 97.0 106.0
10.634000 5.524000 -0.539000 101.0 98.0 105.0
10.621000 5.602000 -0.540000 22.0 20.0 28.0
10.626000 5.648000 -0.542000 17.0 16.0 19.0
10.581000 5.688000 -0.541000 18.0 16.0 21.0
10.509000 5.692000 -0.537000 22.0 26.0 27.0
10.455000 5.705000 -0.534000 52.0 56.0 51.0
10.461000 5.751000 -0.536000 60.0 43.0 53.0
10.230000 5.707000 -0.522000 57.0 119.0 126.0
10.165000 5.692000 -0.518000 134.0 143.0 124.0
10.017000 5.650000 -0.509000 121.0 129.0 141.0
10.079000 5.727000 -0.514000 106.0 104.0 163.0
9.995000 5.721000 -0.510000 41.0 44.0 45.0
9.937000 5.729000 -0.507000 50.0 51.0 50.0
9.873000 5.733000 -0.504000 51.0 50.0 55.0
9.796000 5.730000 -0.499000 45.0 51.0 60.0
9.744000 5.720000 -0.496000 44.0 52.0 62.0
9.695000 5.732000 -0.494000 57.0 60.0 63.0
9.651000 5.747000 -0.492000 41.0 48.0 59.0
9.168000 5.576000 -0.461000 50.0 56.0 59.0
9.114000 5.582000 -0.459000 52.0 53.0 65.0
9.070000 5.575000 -0.456000 52.0 61.0 65.0
9.007000 5.575000 -0.453000 95.0 91.0 95.0
8.976000 5.594000 -0.452000 91.0 94.0 96.0
8.884000 5.576000 -0.446000 88.0 90.0 100.0
8.722000 5.551000 -0.437000 94.0 90.0 95.0
8.608000 5.515000 -0.430000 77.0 72.0 78.0
8.676000 5.579000 -0.435000 56.0 64.0 70.0
8.638000 5.593000 -0.434000 50.0 58.0 73.0
8.586000 5.597000 -0.431000 35.0 36.0 49.0
8.521000 5.593000 -0.428000 52.0 48.0 43.0
8.474000 5.600000 -0.426000 63.0 66.0 69.0
8.423000 5.604000 -0.423000 80.0 78.0 80.0
8.369000 5.606000 -0.421000 83.0 85.0 87.0
8.330000 5.599000 -0.418000 86.0 87.0 90.0
8.272000 5.597000 -0.415000 86.0 88.0 85.0
8.232000 5.609000 -0.414000 87.0 87.0 91.0
8.192000 5.619000 -0.412000 88.0 84.0 88.0
8.133000 5.616000 -0.409000 91.0 93.0 96.0
8.093000 5.625000 -0.407000 85.0 90.0 98.0
8.027000 5.617000 -0.403000 85.0 91.0 98.0
7.997000 5.615000 -0.402000 85.0 90.0 94.0
7.942000 5.614000 -0.399000 83.0 89.0 92.0
7.897000 5.619000 -0.397000 89.0 89.0 94.0
7.845000 5.619000 -0.394000 87.0 87.0 93.0
7.803000 5.626000 -0.393000 82.0 88.0 88.0
7.760000 5.632000 -0.391000 83.0 85.0 94.0
7.715000 5.636000 -0.388000 86.0 82.0 90.0
7.672000 5.623000 -0.386000 86.0 84.0 91.0
7.637000 5.634000 -0.384000 80.0 86.0 91.0
7.594000 5.639000 -0.383000 88.0 83.0 89.0
7.541000 5.637000 -0.380000 86.0 85.0 91.0
7.498000 5.641000 -0.378000 82.0 83.0 95.0
7.456000 5.646000 -0.376000 84.0 82.0 87.0
7.414000 5.651000 -0.374000 81.0 82.0 84.0
7.374000 5.639000 -0.372000 84.0 81.0 86.0
7.332000 5.644000 -0.370000 82.0 82.0 86.0
7.286000 5.645000 -0.368000 81.0 82.0 88.0
7.248000 5.651000 -0.366000 85.0 80.0 89.0
7.194000 5.646000 -0.363000 79.0 79.0 87.0
7.161000 5.656000 -0.362000 78.0 78.0 87.0
7.123000 5.662000 -0.360000 82.0 78.0 83.0
7.077000 5.662000 -0.358000 81.0 79.0 85.0
7.045000 5.654000 -0.356000 81.0 79.0 88.0
7.004000 5.657000 -0.354000 79.0 76.0 87.0
6.964000 5.662000 -0.353000 75.0 79.0 86.0
6.923000 5.665000 -0.351000 76.0 78.0 82.0
6.884000 5.668000 -0.349000 75.0 77.0 78.0
6.843000 5.671000 -0.347000 75.0 76.0 82.0
7.734000 -6.363000 -0.417000 56.0 57.0 55.0
10.682000 -8.719000 -0.650000 26.0 24.0 36.0
4.831000 -3.849000 -0.180000 23.0 18.0 18.0
4.885000 -3.867000 -0.183000 25.0 18.0 16.0
6.265000 -4.918000 -0.290000 31.0 25.0 20.0
6.262000 -4.900000 -0.289000 30.0 27.0 19.0
6.266000 -4.872000 -0.288000 21.0 18.0 15.0
4.787000 -3.705000 -0.172000 16.0 16.0 18.0
4.806000 -3.696000 -0.172000 15.0 13.0 15.0
4.851000 -3.706000 -0.175000 16.0 13.0 16.0
4.974000 -3.775000 -0.184000 28.0 18.0 17.0
4.895000 -3.691000 -0.177000 21.0 13.0 10.0
4.907000 -3.688000 -0.177000 21.0 13.0 12.0
4.975000 -3.714000 -0.182000 15.0 20.0 18.0
4.992000 -3.702000 -0.182000 15.0 13.0 18.0
4.895000 -3.608000 -0.174000 20.0 17.0 18.0
4.793000 -3.510000 -0.165000 26.0 28.0 34.0
4.795000 -3.488000 -0.164000 24.0 22.0 21.0
4.814000 -3.479000 -0.165000 34.0 26.0 22.0
4.808000 -3.463000 -0.164000 30.0 26.0 21.0
4.802000 -3.436000 -0.163000 21.0 17.0 10.0
4.833000 -3.435000 -0.164000 13.0 15.0 14.0
9.207000 -6.386000 -0.491000 16.0 17.0 21.0
5.004000 -3.451000 -0.173000 20.0 18.0 16.0
9.117000 -6.282000 -0.482000 19.0 19.0 18.0
4.810000 -3.296000 -0.158000 20.0 15.0 16.0
11.430000 -7.632000 -0.648000 43.0 42.0 41.0
7.738000 -5.142000 -0.372000 60.0 65.0 65.0
5.372000 -3.555000 -0.196000 21.0 17.0 13.0
5.264000 -3.473000 -0.188000 23.0 19.0 15.0
5.300000 -3.472000 -0.189000 34.0 20.0 17.0
5.398000 -3.512000 -0.196000 39.0 26.0 14.0
5.456000 -3.525000 -0.199000 14.0 15.0 19.0
8.112000 -5.190000 -0.393000 75.0 58.0 42.0
5.418000 -3.452000 -0.195000 51.0 32.0 18.0
5.454000 -3.451000 -0.197000 33.0 24.0 13.0
5.504000 -3.458000 -0.200000 25.0 22.0 17.0
11.539000 -7.192000 -0.638000 31.0 22.0 25.0
5.119000 -3.185000 -0.170000 65.0 54.0 50.0
5.316000 -3.284000 -0.184000 54.0 46.0 32.0
5.439000 -3.335000 -0.192000 41.0 28.0 18.0
5.183000 -3.157000 -0.173000 70.0 51.0 41.0
10.737000 -6.440000 -0.572000 60.0 64.0 82.0
10.810000 -6.345000 -0.573000 65.0 67.0 69.0
10.859000 -6.328000 -0.575000 57.0 64.0 65.0
6.013000 -3.492000 -0.228000 100.0 91.0 79.0
6.011000 -3.466000 -0.227000 89.0 106.0 116.0
10.904000 -6.195000 -0.573000 130.0 118.0 88.0
5.295000 -3.002000 -0.174000 23.0 20.0 19.0
5.952000 -3.346000 -0.220000 64.0 57.0 70.0
6.340000 -3.510000 -0.246000 101.0 92.0 86.0
6.381000 -3.506000 -0.248000 98.0 87.0 87.0
6.411000 -3.510000 -0.250000 106.0 85.0 86.0
6.411000 -3.484000 -0.249000 86.0 98.0 88.0
6.459000 -3.483000 -0.251000 72.0 69.0 73.0
6.472000 -3.464000 -0.252000 66.0 72.0 84.0
6.479000 -3.442000 -0.251000 73.0 82.0 85.0
6.591000 -3.474000 -0.258000 49.0 70.0 82.0
6.630000 -3.468000 -0.260000 38.0 82.0 92.0
6.614000 -3.433000 -0.258000 44.0 64.0 81.0
6.543000 -3.384000 -0.253000 55.0 69.0 80.0
6.369000 -3.269000 -0.240000 157.0 108.0 80.0
6.432000 -3.276000 -0.244000 156.0 100.0 78.0
6.630000 -3.350000 -0.257000 84.0 81.0 90.0
6.723000 -3.370000 -0.263000 51.0 64.0 71.0
6.775000 -3.369000 -0.265000 67.0 63.0 45.0
6.808000 -3.359000 -0.267000 82.0 76.0 68.0
6.871000 -3.376000 -0.271000 136.0 117.0 81.0
7.306000 -3.560000 -0.300000 115.0 102.0 87.0
7.331000 -3.544000 -0.301000 85.0 121.0 85.0
7.324000 -3.512000 -0.300000 114.0 102.0 84.0
7.359000 -3.500000 -0.302000 77.0 58.0 50.0
7.160000 -3.379000 -0.287000 110.0 84.0 66.0
7.223000 -3.381000 -0.291000 158.0 121.0 51.0
7.247000 -3.378000 -0.292000 110.0 90.0 81.0
7.252000 -3.352000 -0.292000 88.0 118.0 78.0
7.390000 -3.388000 -0.300000 113.0 99.0 91.0
7.331000 -3.333000 -0.296000 97.0 106.0 79.0
7.850000 -3.537000 -0.330000 118.0 98.0 42.0
7.885000 -3.523000 -0.332000 125.0 111.0 90.0
7.994000 -3.542000 -0.338000 61.0 54.0 45.0
8.099000 -3.572000 -0.345000 121.0 119.0 103.0
8.115000 -3.549000 -0.345000 22.0 26.0 29.0
8.015000 -3.476000 -0.338000 28.0 23.0 38.0
8.040000 -3.457000 -0.339000 62.0 52.0 46.0
8.235000 -3.509000 -0.351000 37.0 61.0 78.0
8.281000 -3.498000 -0.353000 137.0 101.0 83.0
8.334000 -3.490000 -0.356000 109.0 79.0 49.0
11.044000 -4.595000 -0.537000 135.0 131.0 93.0
8.679000 -3.585000 -0.378000 106.0 94.0 92.0
8.853000 -3.624000 -0.389000 65.0 66.0 82.0
8.911000 -3.615000 -0.392000 86.0 105.0 99.0
8.896000 -3.576000 -0.391000 132.0 128.0 96.0
8.963000 -3.570000 -0.394000 130.0 103.0 81.0
9.101000 -3.592000 -0.403000 96.0 75.0 55.0
8.799000 -3.458000 -0.382000 96.0 75.0 55.0
8.706000 -3.390000 -0.375000 255.0 226.0 147.0
9.214000 -3.553000 -0.408000 109.0 133.0 103.0
9.199000 -3.514000 -0.407000 103.0 112.0 102.0
9.109000 -3.447000 -0.400000 136.0 131.0 101.0
9.135000 -3.424000 -0.401000 149.0 123.0 88.0
9.369000 -3.477000 -0.416000 115.0 100.0 102.0
9.492000 -3.506000 -0.423000 136.0 127.0 91.0
9.486000 -3.470000 -0.422000 106.0 112.0 83.0
9.341000 -3.384000 -0.412000 91.0 75.0 60.0
9.380000 -3.365000 -0.414000 80.0 66.0 59.0
9.521000 -3.381000 -0.422000 104.0 97.0 96.0
9.982000 -3.508000 -0.452000 96.0 83.0 74.0
9.219000 -3.210000 -0.401000 99.0 135.0 89.0
9.260000 -3.208000 -0.404000 87.0 85.0 91.0
9.383000 -3.217000 -0.411000 119.0 128.0 98.0
9.210000 -3.094000 -0.398000 46.0 17.0 14.0
9.136000 -3.037000 -0.393000 80.0 85.0 96.0
9.702000 -3.190000 -0.429000 135.0 116.0 91.0
9.845000 -3.202000 -0.438000 126.0 118.0 96.0
9.964000 -3.223000 -0.445000 128.0 117.0 99.0
10.105000 -3.234000 -0.454000 128.0 122.0 96.0
10.209000 -3.231000 -0.460000 127.0 121.0 94.0
10.356000 -3.242000 -0.469000 116.0 103.0 88.0
10.504000 -3.251000 -0.478000 95.0 108.0 98.0
10.627000 -3.253000 -0.485000 126.0 131.0 100.0
10.759000 -3.256000 -0.493000 218.0 143.0 106.0
10.902000 -3.280000 -0.502000 124.0 135.0 132.0
11.019000 -3.278000 -0.509000 148.0 150.0 249.0
11.150000 -3.278000 -0.516000 138.0 141.0 152.0
11.312000 -3.287000 -0.526000 138.0 130.0 106.0
11.472000 -3.294000 -0.536000 145.0 146.0 118.0
11.538000 -3.273000 -0.539000 128.0 129.0 103.0
11.587000 -3.248000 -0.542000 133.0 125.0 95.0
11.596000 -3.231000 -0.542000 149.0 110.0 78.0
11.583000 -3.188000 -0.541000 35.0 26.0 18.0
11.651000 -3.167000 -0.544000 33.0 27.0 29.0
11.786000 -3.164000 -0.552000 42.0 36.0 36.0
11.962000 -3.170000 -0.563000 47.0 44.0 66.0
12.335000 -3.227000 -0.586000 209.0 202.0 165.0
12.531000 -3.236000 -0.598000 150.0 154.0 166.0
12.696000 -3.257000 -0.608000 217.0 192.0 190.0
12.894000 -3.264000 -0.620000 255.0 255.0 255.0
13.094000 -3.271000 -0.632000 255.0 255.0 255.0
13.299000 -3.277000 -0.645000 255.0 255.0 255.0
13.509000 -3.283000 -0.657000 255.0 255.0 255.0
13.733000 -3.292000 -0.671000 255.0 255.0 255.0
13.949000 -3.297000 -0.684000 255.0 255.0 255.0
14.162000 -3.323000 -0.697000 255.0 255.0 255.0
14.410000 -3.333000 -0.712000 252.0 255.0 254.0
14.648000 -3.340000 -0.727000 253.0 250.0 231.0
14.896000 -3.347000 -0.742000 229.0 237.0 217.0
15.170000 -3.358000 -0.758000 228.0 208.0 199.0
15.420000 -3.362000 -0.774000 255.0 231.0 215.0
15.700000 -3.371000 -0.791000 209.0 212.0 207.0
15.973000 -3.403000 -0.808000 217.0 216.0 204.0
16.263000 -3.411000 -0.825000 219.0 212.0 197.0
16.566999 -3.420000 -0.844000 201.0 204.0 191.0
16.899000 -3.432000 -0.864000 211.0 210.0 199.0
17.246000 -3.446000 -0.885000 215.0 208.0 203.0
17.552999 -3.449000 -0.904000 221.0 217.0 212.0
17.844000 -3.448000 -0.922000 255.0 255.0 234.0
18.132000 -3.474000 -0.939000 237.0 238.0 236.0
18.441000 -3.472000 -0.958000 207.0 208.0 200.0
18.826000 -3.483000 -0.982000 190.0 208.0 197.0
19.212000 -3.492000 -1.005000 170.0 179.0 166.0
19.629999 -3.503000 -1.031000 171.0 163.0 146.0
20.073999 -3.517000 -1.058000 162.0 163.0 153.0
19.844999 -3.413000 -1.043000 158.0 144.0 123.0
20.969999 -3.571000 -1.113000 98.0 119.0 149.0
21.436001 -3.581000 -1.142000 60.0 95.0 103.0
21.944000 -3.594000 -1.173000 121.0 128.0 139.0
22.481001 -3.609000 -1.206000 180.0 149.0 137.0
23.073999 -3.629000 -1.242000 148.0 141.0 120.0
23.648001 -3.643000 -1.277000 169.0 162.0 147.0
24.082001 -3.632000 -1.304000 197.0 181.0 154.0
24.040001 -3.587000 -1.301000 178.0 172.0 143.0
24.031000 -3.508000 -1.300000 43.0 31.0 20.0
23.955000 -3.420000 -1.294000 46.0 33.0 27.0
24.025000 -3.353000 -1.298000 47.0 32.0 28.0
24.441000 -3.333000 -1.323000 86.0 62.0 55.0
29.492001 -3.922000 -1.638000 67.0 87.0 109.0
30.478001 -3.955000 -1.698000 65.0 73.0 87.0
12.810000 -1.636000 -0.596000 131.0 150.0 138.0
12.820000 -1.617000 -0.597000 115.0 122.0 122.0
12.877000 -1.583000 -0.600000 99.0 138.0 186.0
13.859000 -1.658000 -0.661000 124.0 156.0 193.0
13.878000 -1.616000 -0.662000 129.0 157.0 198.0
14.830000 -0.950000 -0.717000 173.0 215.0 255.0
12.947000 -0.262000 -0.598000 221.0 255.0 255.0
12.910000 -0.221000 -0.596000 237.0 255.0 255.0
12.889000 -0.180000 -0.595000 249.0 255.0 255.0
46.362999 -0.289000 -2.665000 169.0 174.0 189.0
13.098000 0.016000 -0.699000 203.0 200.0 175.0
13.112000 0.036000 -0.700000 219.0 221.0 205.0
13.149000 0.078000 -0.703000 232.0 233.0 214.0
37.761002 0.412000 -2.396000 199.0 199.0 199.0
42.029999 1.579000 -2.692000 222.0 228.0 235.0
42.264000 1.720000 -2.708000 225.0 232.0 234.0
42.368999 1.791000 -2.716000 225.0 232.0 241.0
42.493999 1.930000 -2.725000 223.0 229.0 236.0
42.676998 2.073000 -2.738000 229.0 236.0 243.0
43.507000 2.524000 -2.796000 229.0 235.0 241.0
43.694000 2.672000 -2.810000 255.0 229.0 207.0
43.853001 2.751000 -2.821000 255.0 229.0 203.0
44.044998 2.902000 -2.835000 255.0 236.0 211.0
44.354000 3.062000 -2.857000 255.0 233.0 216.0
44.835999 3.236000 -2.891000 255.0 249.0 218.0
45.043999 3.394000 -2.906000 255.0 247.0 229.0
45.349998 3.560000 -2.928000 255.0 253.0 230.0
45.555000 3.720000 -2.943000 255.0 253.0 243.0
45.793999 3.812000 -2.959000 255.0 255.0 241.0
46.062000 3.979000 -2.979000 255.0 253.0 242.0
46.290001 4.146000 -2.995000 255.0 251.0 241.0
46.568001 4.318000 -3.016000 255.0 255.0 250.0
46.834999 4.491000 -3.035000 255.0 255.0 243.0
46.412998 4.598000 -3.007000 255.0 255.0 255.0
46.206001 4.724000 -2.994000 233.0 144.0 99.0
45.984001 4.774000 -2.979000 130.0 158.0 155.0
45.772999 4.898000 -2.965000 140.0 203.0 255.0
45.755001 5.042000 -2.965000 223.0 219.0 251.0
45.780998 5.190000 -2.968000 239.0 253.0 235.0
45.984001 5.359000 -2.983000 221.0 246.0 255.0
46.026001 5.511000 -2.987000 214.0 243.0 255.0
46.041000 5.659000 -2.989000 200.0 226.0 206.0
45.984001 5.726000 -2.986000 164.0 163.0 186.0
45.973999 5.871000 -2.987000 165.0 141.0 120.0
46.018002 6.024000 -2.991000 140.0 113.0 95.0
46.116001 6.184000 -2.999000 142.0 109.0 87.0
46.150002 6.336000 -3.003000 143.0 110.0 83.0
46.116001 6.479000 -3.002000 121.0 93.0 77.0
29.892000 4.353000 -1.876000 56.0 60.0 76.0
29.805000 4.436000 -1.871000 76.0 61.0 65.0
29.862000 4.540000 -1.876000 47.0 42.0 44.0
29.854000 4.635000 -1.876000 62.0 46.0 48.0
29.847000 4.730000 -1.877000 61.0 51.0 53.0
29.725000 4.806000 -1.870000 46.0 34.0 31.0
29.305000 4.833000 -1.841000 45.0 37.0 37.0
29.014000 4.832000 -1.822000 45.0 38.0 35.0
28.688999 4.871000 -1.800000 43.0 36.0 39.0
28.316000 4.900000 -1.775000 54.0 49.0 44.0
27.969999 4.931000 -1.752000 67.0 53.0 49.0
27.593000 4.954000 -1.727000 76.0 59.0 52.0
27.218000 4.976000 -1.702000 80.0 72.0 62.0
26.865000 4.999000 -1.678000 77.0 69.0 71.0
26.507999 4.976000 -1.654000 76.0 66.0 60.0
26.171000 4.998000 -1.631000 76.0 68.0 65.0
25.490999 4.952000 -1.585000 67.0 66.0 59.0
25.444000 5.026000 -1.582000 33.0 22.0 30.0
25.198999 5.060000 -1.566000 48.0 51.0 49.0
24.888000 5.079000 -1.546000 79.0 69.0 57.0
24.579000 5.097000 -1.525000 78.0 69.0 70.0
24.295000 5.078000 -1.506000 76.0 63.0 57.0
24.004000 5.096000 -1.486000 76.0 67.0 68.0
23.714001 5.113000 -1.467000 82.0 72.0 68.0
23.451000 5.133000 -1.450000 82.0 71.0 63.0
23.183001 5.152000 -1.432000 82.0 69.0 62.0
22.923000 5.170000 -1.415000 88.0 77.0 75.0
22.662001 5.186000 -1.397000 85.0 76.0 75.0
22.430000 5.170000 -1.382000 86.0 71.0 70.0
22.169001 5.184000 -1.364000 90.0 74.0 68.0
21.929001 5.201000 -1.349000 93.0 77.0 69.0
21.695000 5.218000 -1.333000 94.0 72.0 62.0
21.464001 5.233000 -1.318000 92.0 76.0 62.0
21.250000 5.252000 -1.304000 104.0 80.0 74.0
21.030001 5.268000 -1.289000 104.0 84.0 72.0
20.802999 5.246000 -1.274000 108.0 86.0 73.0
20.597000 5.264000 -1.261000 114.0 97.0 87.0
20.381001 5.277000 -1.246000 114.0 95.0 90.0
20.174999 5.292000 -1.233000 113.0 102.0 91.0
19.959999 5.302000 -1.219000 115.0 95.0 92.0
19.787001 5.323000 -1.208000 113.0 98.0 92.0
19.568001 5.331000 -1.193000 118.0 95.0 88.0
18.622999 5.138000 -1.127000 106.0 95.0 78.0
18.473000 5.128000 -1.117000 105.0 94.0 87.0
18.275999 5.135000 -1.104000 105.0 104.0 104.0
18.162001 5.165000 -1.097000 107.0 107.0 106.0
18.171000 5.229000 -1.099000 71.0 43.0 43.0
18.388000 5.354000 -1.116000 37.0 32.0 34.0
18.056999 5.319000 -1.093000 35.0 27.0 29.0
17.895000 5.333000 -1.083000 26.0 20.0 22.0
17.753000 5.321000 -1.073000 25.0 22.0 24.0
17.601999 5.337000 -1.063000 31.0 26.0 26.0
17.421000 5.342000 -1.052000 32.0 24.0 28.0
17.236000 5.345000 -1.040000 42.0 36.0 36.0
16.893999 5.356000 -1.017000 40.0 36.0 38.0
16.778000 5.377000 -1.010000 35.0 32.0 37.0
16.622000 5.356000 -0.999000 35.0 26.0 30.0
16.474001 5.366000 -0.990000 41.0 32.0 28.0
16.344999 5.381000 -0.982000 39.0 30.0 33.0
16.195999 5.388000 -0.972000 33.0 29.0 33.0
16.052000 5.397000 -0.963000 42.0 35.0 36.0
15.545000 5.282000 -0.927000 38.0 37.0 39.0
15.433000 5.271000 -0.920000 56.0 51.0 40.0
15.299000 5.279000 -0.911000 105.0 98.0 103.0
15.171000 5.289000 -0.903000 104.0 98.0 102.0
15.049000 5.299000 -0.896000 108.0 99.0 108.0
14.923000 5.308000 -0.888000 107.0 101.0 104.0
14.794000 5.315000 -0.879000 101.0 102.0 100.0
14.670000 5.322000 -0.872000 103.0 96.0 104.0
14.552000 5.332000 -0.864000 102.0 99.0 103.0
14.437000 5.315000 -0.856000 101.0 99.0 105.0
14.329000 5.327000 -0.850000 104.0 100.0 100.0
14.220000 5.338000 -0.843000 106.0 101.0 104.0
14.097000 5.342000 -0.835000 105.0 97.0 103.0
13.985000 5.350000 -0.828000 102.0 99.0 103.0
13.886000 5.363000 -0.822000 102.0 99.0 105.0
13.767000 5.366000 -0.815000 101.0 97.0 102.0
13.669000 5.353000 -0.808000 100.0 98.0 100.0
13.572000 5.365000 -0.802000 99.0 96.0 101.0
13.452000 5.366000 -0.794000 101.0 97.0 93.0
13.355000 5.377000 -0.788000 97.0 96.0 109.0
13.247000 5.382000 -0.782000 101.0 97.0 100.0
13.153000 5.392000 -0.776000 102.0 96.0 96.0
13.045000 5.396000 -0.769000 99.0 95.0 101.0
12.974000 5.390000 -0.765000 102.0 96.0 99.0
12.845000 5.384000 -0.756000 97.0 95.0 94.0
12.762000 5.397000 -0.751000 91.0 96.0 95.0
12.669000 5.405000 -0.746000 99.0 96.0 97.0
12.579000 5.413000 -0.740000 100.0 94.0 95.0
12.478000 5.416000 -0.734000 99.0 97.0 100.0
12.404000 5.431000 -0.730000 94.0 96.0 100.0
12.304000 5.410000 -0.723000 95.0 96.0 99.0
12.225000 5.422000 -0.718000 100.0 95.0 95.0
12.138000 5.429000 -0.713000 97.0 98.0 104.0
12.045000 5.433000 -0.707000 99.0 97.0 98.0
11.962000 5.441000 -0.702000 98.0 93.0 101.0
11.880000 5.449000 -0.697000 96.0 97.0 103.0
11.781000 5.449000 -0.691000 99.0 97.0 100.0
11.715000 5.440000 -0.687000 96.0 95.0 101.0
11.630000 5.446000 -0.681000 99.0 98.0 100.0
11.541000 5.449000 -0.676000 92.0 96.0 99.0
11.468000 5.458000 -0.672000 96.0 96.0 103.0
11.390000 5.465000 -0.667000 99.0 98.0 102.0
11.291000 5.462000 -0.661000 100.0 95.0 106.0
11.226000 5.474000 -0.657000 98.0 100.0 100.0
11.165000 5.466000 -0.653000 99.0 98.0 104.0
11.074000 5.465000 -0.648000 97.0 99.0 101.0
10.995000 5.469000 -0.643000 103.0 103.0 104.0
10.938000 5.484000 -0.640000 101.0 101.0 99.0
10.842000 5.479000 -0.634000 100.0 100.0 106.0
10.782000 5.491000 -0.630000 103.0 101.0 99.0
10.699000 5.491000 -0.625000 99.0 101.0 104.0
10.630000 5.477000 -0.621000 98.0 98.0 103.0
10.466000 5.435000 -0.609000 97.0 98.0 101.0
10.573000 5.532000 -0.619000 84.0 62.0 71.0
10.584000 5.580000 -0.621000 39.0 35.0 36.0
10.562000 5.611000 -0.621000 39.0 34.0 33.0
10.566000 5.656000 -0.622000 39.0 33.0 32.0
10.367000 5.592000 -0.608000 39.0 32.0 34.0
10.448000 5.656000 -0.615000 37.0 37.0 38.0
10.393000 5.669000 -0.612000 48.0 46.0 50.0
10.409000 5.720000 -0.615000 39.0 44.0 52.0
10.210000 5.654000 -0.601000 48.0 32.0 45.0
10.144000 5.658000 -0.597000 73.0 104.0 105.0
10.074000 5.661000 -0.593000 26.0 29.0 45.0
10.042000 5.685000 -0.592000 25.0 24.0 29.0
9.990000 5.676000 -0.588000 23.0 21.0 29.0
9.932000 5.685000 -0.585000 25.0 30.0 34.0
9.857000 5.683000 -0.581000 25.0 40.0 47.0
9.801000 5.692000 -0.578000 91.0 113.0 111.0
9.752000 5.705000 -0.575000 139.0 150.0 156.0
9.698000 5.714000 -0.572000 145.0 152.0 167.0
9.635000 5.718000 -0.569000 140.0 149.0 171.0
9.575000 5.703000 -0.565000 142.0 158.0 167.0
9.173000 5.543000 -0.535000 144.0 151.0 162.0
9.109000 5.544000 -0.532000 141.0 155.0 165.0
9.061000 5.554000 -0.529000 93.0 90.0 134.0
8.998000 5.554000 -0.525000 80.0 84.0 90.0
8.946000 5.561000 -0.523000 89.0 90.0 99.0
8.915000 5.562000 -0.521000 90.0 89.0 98.0
8.842000 5.555000 -0.516000 88.0 92.0 92.0
8.581000 5.467000 -0.498000 88.0 85.0 95.0
8.554000 5.488000 -0.497000 58.0 66.0 78.0
8.615000 5.565000 -0.504000 65.0 65.0 66.0
8.564000 5.571000 -0.501000 43.0 40.0 49.0
8.517000 5.559000 -0.498000 36.0 32.0 42.0
8.465000 5.563000 -0.495000 55.0 60.0 59.0
8.414000 5.567000 -0.492000 67.0 72.0 76.0
8.366000 5.574000 -0.490000 80.0 79.0 81.0
8.309000 5.574000 -0.486000 84.0 83.0 88.0
8.248000 5.571000 -0.483000 83.0 85.0 90.0
8.208000 5.581000 -0.481000 87.0 90.0 95.0
8.172000 5.576000 -0.479000 91.0 88.0 90.0
8.117000 5.576000 -0.475000 85.0 88.0 92.0
8.061000 5.575000 -0.472000 87.0 89.0 97.0
8.018000 5.582000 -0.470000 89.0 87.0 97.0
7.967000 5.585000 -0.467000 90.0 86.0 95.0
7.917000 5.587000 -0.465000 88.0 88.0 93.0
7.873000 5.593000 -0.462000 87.0 88.0 95.0
7.834000 5.584000 -0.460000 91.0 85.0 94.0
7.792000 5.591000 -0.458000 91.0 87.0 94.0
7.745000 5.594000 -0.455000 88.0 88.0 93.0
7.698000 5.598000 -0.453000 83.0 83.0 93.0
7.644000 5.595000 -0.450000 85.0 88.0 92.0
7.605000 5.603000 -0.448000 87.0 88.0 91.0
7.557000 5.605000 -0.445000 85.0 85.0 91.0
7.515000 5.611000 -0.443000 81.0 86.0 95.0
7.479000 5.602000 -0.441000 81.0 84.0 93.0
7.438000 5.608000 -0.439000 85.0 85.0 87.0
7.391000 5.609000 -0.436000 84.0 85.0 88.0
7.343000 5.610000 -0.434000 80.0 83.0 89.0
7.308000 5.619000 -0.432000 84.0 83.0 90.0
7.261000 5.619000 -0.430000 82.0 82.0 92.0
7.216000 5.621000 -0.427000 84.0 84.0 89.0
7.182000 5.613000 -0.425000 80.0 82.0 84.0
7.138000 5.615000 -0.423000 83.0 81.0 87.0
7.100000 5.621000 -0.421000 77.0 82.0 89.0
7.058000 5.625000 -0.419000 79.0 79.0 87.0
7.014000 5.626000 -0.417000 80.0 80.0 85.0
6.979000 5.634000 -0.415000 75.0 79.0 85.0
6.943000 5.622000 -0.413000 77.0 79.0 84.0
6.898000 5.623000 -0.410000 75.0 79.0 83.0
6.861000 5.628000 -0.408000 79.0 80.0 83.0
6.823000 5.633000 -0.407000 79.0 74.0 84.0
7.940000 -6.524000 -0.505000 39.0 20.0 16.0
9.734000 -7.828000 -0.657000 84.0 63.0 48.0
9.788000 -7.821000 -0.660000 46.0 38.0 25.0
9.816000 -7.793000 -0.660000 40.0 34.0 20.0
6.251000 -4.918000 -0.345000 23.0 18.0 25.0
5.172000 -4.037000 -0.249000 19.0 15.0 15.0
6.286000 -4.883000 -0.346000 16.0 10.0 12.0
4.802000 -3.698000 -0.215000 26.0 18.0 17.0
4.814000 -3.695000 -0.215000 26.0 18.0 17.0
9.217000 -7.059000 -0.597000 15.0 15.0 14.0
4.886000 -3.702000 -0.220000 25.0 19.0 19.0
4.836000 -3.640000 -0.214000 24.0 18.0 17.0
4.852000 -3.628000 -0.215000 28.0 19.0 17.0
4.913000 -3.650000 -0.219000 30.0 19.0 21.0
4.692000 -3.462000 -0.199000 26.0 20.0 17.0
4.555000 -3.349000 -0.187000 24.0 19.0 17.0
4.524000 -3.303000 -0.183000 27.0 19.0 23.0
4.508000 -3.270000 -0.181000 26.0 21.0 23.0
4.451000 -3.207000 -0.175000 19.0 20.0 22.0
4.454000 -3.188000 -0.175000 12.0 19.0 21.0
4.453000 -3.166000 -0.174000 14.0 15.0 18.0
4.460000 -3.150000 -0.174000 14.0 12.0 13.0
4.478000 -3.152000 -0.175000 11.0 12.0 13.0
4.502000 -3.148000 -0.176000 15.0 14.0 12.0
4.530000 -3.147000 -0.177000 17.0 14.0 13.0
4.548000 -3.138000 -0.178000 13.0 13.0 15.0
4.569000 -3.132000 -0.179000 16.0 14.0 12.0
4.594000 -3.128000 -0.180000 17.0 15.0 15.0
4.599000 -3.110000 -0.180000 18.0 14.0 11.0
4.630000 -3.110000 -0.182000 18.0 14.0 13.0
4.643000 -3.108000 -0.182000 17.0 15.0 12.0
4.663000 -3.100000 -0.183000 18.0 13.0 12.0
4.713000 -3.112000 -0.186000 17.0 14.0 14.0
4.756000 -3.119000 -0.189000 14.0 12.0 14.0
4.897000 -3.191000 -0.200000 14.0 18.0 18.0
10.763000 -7.002000 -0.681000 89.0 81.0 67.0
7.932000 -5.134000 -0.448000 36.0 61.0 57.0
7.780000 -5.001000 -0.434000 60.0 57.0 53.0
5.474000 -3.485000 -0.244000 71.0 75.0 62.0
5.500000 -3.478000 -0.246000 74.0 60.0 59.0
11.582000 -7.307000 -0.740000 103.0 93.0 80.0
7.746000 -4.842000 -0.426000 61.0 55.0 55.0
5.159000 -3.192000 -0.215000 17.0 16.0 16.0
5.194000 -3.203000 -0.218000 18.0 17.0 15.0
5.180000 -3.172000 -0.216000 23.0 16.0 13.0
6.942000 -4.231000 -0.357000 20.0 16.0 16.0
7.037000 -4.259000 -0.364000 38.0 40.0 60.0
5.840000 -3.504000 -0.266000 18.0 19.0 21.0
10.801000 -6.392000 -0.661000 70.0 75.0 79.0
10.816000 -6.355000 -0.661000 63.0 70.0 73.0
5.973000 -3.471000 -0.273000 39.0 34.0 37.0
5.258000 -3.030000 -0.215000 70.0 68.0 75.0
5.200000 -2.974000 -0.210000 95.0 95.0 84.0
11.524000 -6.579000 -0.711000 190.0 116.0 98.0
10.887000 -6.169000 -0.659000 42.0 111.0 117.0
6.260000 -3.508000 -0.292000 40.0 43.0 37.0
6.279000 -3.506000 -0.293000 60.0 52.0 71.0
6.364000 -3.501000 -0.298000 35.0 45.0 14.0
6.403000 -3.497000 -0.300000 68.0 45.0 35.0
6.456000 -3.500000 -0.303000 38.0 82.0 74.0
6.437000 -3.463000 -0.301000 60.0 44.0 58.0
6.467000 -3.453000 -0.302000 86.0 102.0 79.0
6.471000 -3.442000 -0.302000 57.0 46.0 12.0
6.610000 -3.490000 -0.312000 105.0 75.0 59.0
6.591000 -3.454000 -0.310000 97.0 106.0 74.0
6.501000 -3.380000 -0.302000 95.0 50.0 39.0
6.448000 -3.327000 -0.297000 103.0 109.0 92.0
6.485000 -3.320000 -0.299000 62.0 27.0 25.0
6.369000 -3.235000 -0.289000 113.0 88.0 71.0
6.362000 -3.219000 -0.288000 75.0 125.0 85.0
6.422000 -3.224000 -0.292000 45.0 54.0 67.0
6.605000 -3.291000 -0.306000 102.0 88.0 27.0
6.683000 -3.304000 -0.311000 114.0 76.0 62.0
6.688000 -3.280000 -0.310000 137.0 108.0 53.0
6.799000 -3.308000 -0.318000 129.0 96.0 67.0
6.949000 -3.355000 -0.329000 135.0 102.0 35.0
7.177000 -3.452000 -0.346000 131.0 105.0 85.0
7.314000 -3.490000 -0.355000 97.0 76.0 25.0
7.406000 -3.506000 -0.362000 155.0 128.0 90.0
7.189000 -3.347000 -0.343000 132.0 108.0 101.0
7.360000 -3.400000 -0.356000 51.0 84.0 74.0
7.304000 -3.345000 -0.351000 144.0 134.0 104.0
9.298000 -4.249000 -0.501000 123.0 134.0 116.0
8.044000 -3.641000 -0.405000 60.0 119.0 99.0
7.463000 -3.348000 -0.361000 109.0 44.0 39.0
7.368000 -3.277000 -0.353000 154.0 136.0 101.0
7.925000 -3.497000 -0.394000 142.0 111.0 83.0
7.154000 -3.128000 -0.335000 147.0 127.0 57.0
7.135000 -3.092000 -0.333000 41.0 31.0 27.0
7.178000 -3.098000 -0.336000 38.0 27.0 46.0
7.239000 -3.098000 -0.340000 61.0 44.0 37.0
7.302000 -3.098000 -0.344000 80.0 85.0 80.0
7.350000 -3.091000 -0.347000 148.0 120.0 95.0
7.432000 -3.098000 -0.352000 108.0 76.0 58.0
7.493000 -3.096000 -0.356000 126.0 87.0 40.0
7.567000 -3.099000 -0.361000 147.0 123.0 93.0
7.637000 -3.114000 -0.365000 127.0 98.0 65.0
7.737000 -3.127000 -0.372000 136.0 130.0 95.0
7.782000 -3.117000 -0.375000 134.0 113.0 94.0
7.892000 -3.132000 -0.382000 80.0 77.0 79.0
7.978000 -3.138000 -0.388000 39.0 82.0 89.0
8.041000 -3.134000 -0.392000 149.0 126.0 109.0
8.131000 -3.140000 -0.398000 139.0 113.0 82.0
8.244000 -3.169000 -0.406000 62.0 103.0 100.0
8.461000 -3.222000 -0.421000 85.0 110.0 108.0
8.409000 -3.172000 -0.416000 146.0 158.0 145.0
8.443000 -3.155000 -0.418000 115.0 136.0 79.0
8.541000 -3.161000 -0.424000 70.0 84.0 101.0
8.641000 -3.168000 -0.431000 120.0 108.0 93.0
8.735000 -3.171000 -0.437000 78.0 58.0 36.0
8.847000 -3.197000 -0.445000 75.0 68.0 64.0
8.979000 -3.213000 -0.454000 96.0 77.0 66.0
9.024000 -3.197000 -0.457000 90.0 90.0 94.0
9.108000 -3.195000 -0.462000 90.0 80.0 58.0
9.157000 -3.180000 -0.465000 70.0 68.0 83.0
9.248000 -3.179000 -0.471000 168.0 151.0 158.0
9.219000 -3.137000 -0.468000 136.0 135.0 87.0
9.469000 -3.206000 -0.486000 165.0 183.0 109.0
9.587000 -3.213000 -0.494000 87.0 65.0 88.0
9.703000 -3.218000 -0.501000 184.0 157.0 151.0
9.777000 -3.209000 -0.506000 158.0 141.0 121.0
9.901000 -3.215000 -0.514000 140.0 124.0 103.0
10.008000 -3.216000 -0.521000 136.0 139.0 101.0
10.176000 -3.235000 -0.533000 138.0 107.0 83.0
10.297000 -3.256000 -0.541000 160.0 135.0 102.0
10.389000 -3.249000 -0.547000 99.0 118.0 111.0
10.496000 -3.247000 -0.554000 116.0 112.0 96.0
10.626000 -3.251000 -0.562000 121.0 111.0 96.0
10.783000 -3.262000 -0.573000 255.0 125.0 94.0
10.893000 -3.258000 -0.580000 101.0 91.0 75.0
11.005000 -3.254000 -0.587000 99.0 123.0 79.0
11.145000 -3.277000 -0.597000 67.0 80.0 111.0
11.286000 -3.281000 -0.607000 91.0 88.0 71.0
11.446000 -3.288000 -0.617000 105.0 93.0 71.0
11.515000 -3.269000 -0.621000 114.0 95.0 75.0
11.556000 -3.242000 -0.624000 94.0 80.0 65.0
11.563000 -3.204000 -0.623000 22.0 28.0 34.0
11.553000 -3.163000 -0.622000 26.0 23.0 26.0
11.608000 -3.158000 -0.626000 30.0 29.0 28.0
11.774000 -3.164000 -0.637000 36.0 34.0 34.0
11.950000 -3.172000 -0.649000 53.0 45.0 55.0
12.292000 -3.222000 -0.672000 119.0 128.0 148.0
12.502000 -3.235000 -0.686000 149.0 133.0 133.0
12.661000 -3.235000 -0.697000 124.0 162.0 224.0
12.863000 -3.243000 -0.711000 239.0 235.0 235.0
13.046000 -3.268000 -0.723000 243.0 235.0 225.0
13.257000 -3.277000 -0.737000 255.0 254.0 235.0
13.465000 -3.284000 -0.751000 212.0 206.0 199.0
13.693000 -3.295000 -0.767000 224.0 227.0 208.0
13.897000 -3.298000 -0.781000 205.0 228.0 214.0
14.127000 -3.306000 -0.796000 213.0 202.0 190.0
14.343000 -3.310000 -0.811000 196.0 197.0 180.0
14.572000 -3.339000 -0.826000 195.0 188.0 179.0
14.806000 -3.344000 -0.842000 193.0 189.0 193.0
15.036000 -3.347000 -0.858000 209.0 193.0 182.0
15.244000 -3.343000 -0.872000 199.0 198.0 192.0
15.439000 -3.335000 -0.885000 199.0 191.0 186.0
15.684000 -3.337000 -0.901000 208.0 199.0 190.0
15.928000 -3.337000 -0.918000 177.0 175.0 167.0
16.209000 -3.370000 -0.937000 212.0 198.0 199.0
16.500999 -3.377000 -0.957000 214.0 202.0 198.0
16.813000 -3.386000 -0.978000 190.0 192.0 194.0
17.146000 -3.398000 -1.001000 200.0 194.0 174.0
17.480000 -3.407000 -1.023000 177.0 189.0 200.0
17.823000 -3.417000 -1.047000 214.0 229.0 231.0
18.222000 -3.435000 -1.074000 202.0 192.0 181.0
18.632999 -3.482000 -1.102000 185.0 183.0 171.0
18.995001 -3.489000 -1.127000 176.0 170.0 151.0
19.417000 -3.504000 -1.155000 190.0 173.0 172.0
19.877001 -3.523000 -1.187000 180.0 187.0 178.0
19.969000 -3.475000 -1.192000 171.0 178.0 141.0
19.886999 -3.396000 -1.186000 118.0 120.0 125.0
21.257000 -3.563000 -1.281000 132.0 151.0 127.0
21.768000 -3.579000 -1.316000 181.0 203.0 198.0
22.282000 -3.628000 -1.351000 255.0 251.0 196.0
22.870001 -3.651000 -1.391000 255.0 230.0 188.0
23.436001 -3.666000 -1.430000 255.0 255.0 255.0
23.999001 -3.678000 -1.468000 255.0 255.0 255.0
23.878000 -3.583000 -1.459000 255.0 255.0 255.0
13.063000 -1.906000 -0.706000 152.0 144.0 126.0
13.034000 -1.860000 -0.704000 30.0 25.0 22.0
13.025000 -1.838000 -0.703000 26.0 24.0 25.0
12.995000 -1.792000 -0.700000 37.0 34.0 36.0
12.850000 -1.730000 -0.690000 42.0 37.0 38.0
12.693000 -1.668000 -0.679000 99.0 74.0 117.0
12.677000 -1.626000 -0.677000 126.0 139.0 151.0
12.696000 -1.588000 -0.678000 107.0 100.0 118.0
12.727000 -0.284000 -0.674000 247.0 255.0 255.0
12.736000 -0.244000 -0.674000 221.0 255.0 255.0
12.783000 -0.225000 -0.677000 228.0 255.0 255.0
12.751000 -0.184000 -0.675000 236.0 255.0 255.0
12.784000 -0.145000 -0.677000 250.0 255.0 255.0
13.048000 -0.066000 -0.696000 255.0 255.0 255.0
13.066000 -0.025000 -0.697000 143.0 120.0 116.0
13.167000 0.002000 -0.769000 126.0 119.0 119.0
33.005001 0.198000 -2.231000 182.0 188.0 195.0
33.144001 0.304000 -2.241000 180.0 175.0 189.0
33.245998 0.409000 -2.249000 166.0 180.0 186.0
33.355000 0.515000 -2.257000 165.0 185.0 197.0
33.481998 0.623000 -2.267000 188.0 204.0 200.0
33.605999 0.731000 -2.276000 210.0 216.0 219.0
33.729000 0.839000 -2.285000 197.0 196.0 193.0
33.848999 0.896000 -2.294000 195.0 191.0 196.0
33.962002 1.005000 -2.303000 191.0 201.0 213.0
34.113998 1.117000 -2.314000 206.0 206.0 217.0
34.332001 1.233000 -2.330000 208.0 212.0 220.0
34.632999 1.353000 -2.353000 214.0 210.0 209.0
34.924999 1.474000 -2.375000 219.0 214.0 214.0
35.146999 1.594000 -2.391000 216.0 217.0 235.0
35.335999 1.659000 -2.406000 214.0 218.0 224.0
35.518002 1.779000 -2.419000 214.0 211.0 210.0
35.733002 1.903000 -2.436000 213.0 215.0 209.0
35.889999 2.024000 -2.448000 227.0 220.0 221.0
36.021000 2.145000 -2.458000 225.0 231.0 230.0
36.235001 2.273000 -2.474000 222.0 213.0 188.0
36.519001 2.406000 -2.496000 222.0 212.0 201.0
36.820999 2.484000 -2.518000 228.0 218.0 196.0
37.139999 2.623000 -2.542000 235.0 226.0 208.0
37.618000 2.776000 -2.578000 245.0 221.0 204.0
38.098999 2.932000 -2.615000 246.0 226.0 205.0
38.473000 3.083000 -2.643000 224.0 212.0 210.0
42.250000 4.526000 -2.930000 86.0 119.0 142.0
42.091999 4.576000 -2.919000 86.0 117.0 138.0
41.924999 4.691000 -2.908000 69.0 62.0 66.0
41.742001 4.803000 -2.895000 61.0 55.0 53.0
41.643002 4.924000 -2.889000 57.0 55.0 59.0
41.612000 5.053000 -2.888000 59.0 63.0 74.0
41.617001 5.187000 -2.889000 64.0 71.0 87.0
41.650002 5.324000 -2.893000 65.0 69.0 78.0
41.721001 5.400000 -2.899000 61.0 67.0 77.0
41.720001 5.533000 -2.900000 61.0 66.0 77.0
41.841999 5.683000 -2.911000 62.0 64.0 73.0
41.992001 5.838000 -2.923000 63.0 66.0 78.0
29.981001 4.353000 -2.031000 57.0 60.0 76.0
29.795000 4.421000 -2.018000 58.0 58.0 70.0
29.940001 4.491000 -2.030000 56.0 58.0 63.0
29.927999 4.585000 -2.030000 55.0 53.0 65.0
29.900999 4.677000 -2.029000 52.0 56.0 69.0
29.888000 4.772000 -2.029000 47.0 50.0 62.0
29.582001 4.818000 -2.007000 45.0 45.0 56.0
29.153999 4.842000 -1.976000 43.0 40.0 57.0
28.733000 4.864000 -1.946000 44.0 43.0 51.0
28.323999 4.840000 -1.916000 44.0 36.0 33.0
27.959000 4.868000 -1.890000 58.0 50.0 48.0
27.555000 4.887000 -1.861000 66.0 58.0 56.0
27.205999 4.913000 -1.836000 71.0 59.0 46.0
26.844999 4.934000 -1.810000 65.0 57.0 55.0
26.496000 4.956000 -1.785000 74.0 61.0 59.0
26.148001 4.975000 -1.760000 73.0 66.0 60.0
25.841999 4.959000 -1.738000 78.0 66.0 55.0
25.507000 4.978000 -1.714000 74.0 57.0 60.0
25.330999 5.026000 -1.702000 34.0 31.0 36.0
25.101999 5.062000 -1.686000 83.0 65.0 53.0
24.815001 5.085000 -1.665000 71.0 61.0 61.0
24.523001 5.105000 -1.644000 79.0 69.0 61.0
24.238001 5.125000 -1.624000 66.0 62.0 56.0
23.959000 5.105000 -1.604000 63.0 58.0 58.0
23.677000 5.123000 -1.584000 68.0 63.0 61.0
23.429001 5.146000 -1.566000 89.0 72.0 66.0
23.164000 5.164000 -1.547000 81.0 65.0 59.0
22.907000 5.182000 -1.529000 77.0 63.0 64.0
22.653000 5.199000 -1.511000 77.0 66.0 61.0
22.398001 5.214000 -1.493000 79.0 69.0 58.0
22.152000 5.230000 -1.476000 77.0 64.0 62.0
21.924999 5.213000 -1.459000 78.0 67.0 63.0
21.693001 5.229000 -1.443000 81.0 69.0 66.0
21.475000 5.248000 -1.428000 84.0 76.0 68.0
21.250999 5.264000 -1.412000 71.0 60.0 58.0
21.025999 5.278000 -1.396000 85.0 74.0 63.0
20.812000 5.293000 -1.381000 89.0 72.0 61.0
20.597000 5.307000 -1.366000 81.0 63.0 53.0
20.396999 5.290000 -1.351000 82.0 71.0 65.0
20.197001 5.306000 -1.337000 89.0 78.0 71.0
19.995001 5.319000 -1.323000 86.0 76.0 71.0
19.806999 5.336000 -1.310000 81.0 60.0 57.0
19.606001 5.347000 -1.296000 80.0 65.0 54.0
18.601000 5.135000 -1.220000 90.0 75.0 69.0
18.493000 5.167000 -1.213000 68.0 60.0 63.0
18.315001 5.149000 -1.201000 63.0 67.0 74.0
18.242001 5.190000 -1.196000 64.0 75.0 94.0
18.240999 5.252000 -1.197000 55.0 37.0 41.0
18.253000 5.317000 -1.199000 37.0 30.0 35.0
18.104000 5.335000 -1.189000 34.0 27.0 27.0
17.965000 5.356000 -1.180000 27.0 22.0 25.0
17.809000 5.340000 -1.169000 29.0 22.0 25.0
17.646000 5.351000 -1.157000 27.0 24.0 24.0
17.478001 5.360000 -1.146000 32.0 28.0 27.0
17.288000 5.361000 -1.132000 39.0 34.0 34.0
16.965000 5.377000 -1.110000 43.0 37.0 42.0
16.816999 5.388000 -1.100000 32.0 30.0 33.0
16.677000 5.401000 -1.090000 35.0 25.0 32.0
16.535999 5.384000 -1.080000 36.0 25.0 31.0
16.377001 5.389000 -1.069000 31.0 31.0 32.0
16.246000 5.402000 -1.060000 45.0 30.0 30.0
16.094999 5.408000 -1.050000 28.0 32.0 33.0
15.628000 5.305000 -1.015000 36.0 35.0 39.0
15.489000 5.312000 -1.005000 75.0 83.0 86.0
15.357000 5.320000 -0.996000 104.0 101.0 107.0
15.249000 5.310000 -0.988000 103.0 102.0 108.0
15.116000 5.316000 -0.979000 104.0 101.0 102.0
14.979000 5.321000 -0.970000 104.0 98.0 101.0
14.866000 5.333000 -0.962000 104.0 101.0 100.0
14.750000 5.344000 -0.955000 103.0 99.0 103.0
14.617000 5.347000 -0.945000 98.0 96.0 103.0
14.509000 5.359000 -0.938000 98.0 97.0 106.0
14.405000 5.347000 -0.931000 98.0 98.0 101.0
14.278000 5.350000 -0.922000 96.0 99.0 104.0
14.174000 5.362000 -0.915000 102.0 98.0 100.0
14.073000 5.374000 -0.909000 103.0 101.0 105.0
13.957000 5.380000 -0.901000 102.0 99.0 101.0
13.846000 5.387000 -0.893000 100.0 100.0 104.0
13.747000 5.398000 -0.887000 95.0 101.0 106.0
13.642000 5.382000 -0.879000 98.0 100.0 105.0
13.531000 5.387000 -0.872000 100.0 97.0 105.0
13.455000 5.405000 -0.867000 99.0 99.0 103.0
13.325000 5.401000 -0.858000 101.0 96.0 105.0
13.241000 5.416000 -0.853000 100.0 99.0 102.0
13.132000 5.419000 -0.845000 97.0 95.0 103.0
13.032000 5.426000 -0.839000 98.0 95.0 100.0
12.939000 5.411000 -0.832000 93.0 96.0 98.0
12.854000 5.423000 -0.826000 94.0 94.0 102.0
12.744000 5.423000 -0.819000 98.0 96.0 98.0
12.670000 5.439000 -0.814000 94.0 96.0 100.0
12.567000 5.441000 -0.808000 94.0 94.0 96.0
12.476000 5.448000 -0.802000 101.0 93.0 95.0
12.383000 5.454000 -0.795000 101.0 93.0 95.0
12.310000 5.445000 -0.790000 92.0 90.0 96.0
12.204000 5.443000 -0.783000 90.0 93.0 98.0
12.125000 5.454000 -0.778000 93.0 93.0 99.0
12.041000 5.461000 -0.773000 90.0 95.0 94.0
11.956000 5.468000 -0.767000 93.0 93.0 98.0
11.867000 5.472000 -0.761000 93.0 94.0 98.0
11.788000 5.481000 -0.756000 98.0 95.0 96.0
11.716000 5.469000 -0.751000 94.0 94.0 96.0
11.627000 5.472000 -0.745000 94.0 92.0 94.0
11.554000 5.482000 -0.741000 92.0 91.0 97.0
11.475000 5.489000 -0.736000 96.0 94.0 95.0
11.390000 5.492000 -0.730000 94.0 95.0 102.0
11.326000 5.505000 -0.726000 98.0 95.0 100.0
11.241000 5.507000 -0.721000 99.0 95.0 99.0
11.173000 5.495000 -0.716000 101.0 98.0 106.0
11.095000 5.500000 -0.711000 99.0 100.0 101.0
11.003000 5.497000 -0.705000 103.0 101.0 102.0
10.930000 5.504000 -0.700000 103.0 104.0 101.0
10.863000 5.513000 -0.696000 104.0 103.0 110.0
10.780000 5.513000 -0.691000 98.0 96.0 100.0
10.717000 5.523000 -0.687000 99.0 97.0 103.0
10.674000 5.523000 -0.684000 98.0 98.0 101.0
10.671000 5.564000 -0.685000 97.0 87.0 92.0
10.675000 5.608000 -0.687000 50.0 44.0 57.0
10.657000 5.642000 -0.687000 38.0 35.0 32.0
10.657000 5.685000 -0.688000 40.0 35.0 35.0
10.599000 5.696000 -0.685000 40.0 36.0 29.0
10.539000 5.707000 -0.682000 38.0 41.0 37.0
10.482000 5.697000 -0.678000 52.0 47.0 48.0
10.440000 5.717000 -0.676000 40.0 48.0 64.0
10.275000 5.668000 -0.663000 47.0 50.0 48.0
10.151000 5.641000 -0.654000 59.0 70.0 70.0
10.071000 5.638000 -0.649000 82.0 68.0 105.0
10.131000 5.714000 -0.656000 29.0 30.0 33.0
10.099000 5.738000 -0.654000 25.0 24.0 33.0
9.999000 5.701000 -0.647000 20.0 18.0 25.0
9.932000 5.704000 -0.642000 23.0 27.0 30.0
9.880000 5.716000 -0.639000 48.0 55.0 48.0
9.812000 5.717000 -0.635000 126.0 130.0 122.0
9.736000 5.714000 -0.630000 141.0 151.0 157.0
9.690000 5.728000 -0.628000 141.0 154.0 165.0
9.628000 5.732000 -0.624000 141.0 153.0 166.0
9.557000 5.710000 -0.619000 140.0 154.0 163.0
9.223000 5.588000 -0.593000 140.0 152.0 167.0
9.153000 5.585000 -0.588000 137.0 142.0 153.0
9.094000 5.588000 -0.585000 81.0 70.0 88.0
9.039000 5.594000 -0.582000 93.0 91.0 96.0
8.976000 5.593000 -0.578000 90.0 90.0 99.0
8.989000 5.621000 -0.580000 92.0 89.0 99.0
8.654000 5.487000 -0.553000 93.0 90.0 99.0
8.629000 5.509000 -0.553000 73.0 80.0 87.0
8.689000 5.586000 -0.560000 59.0 61.0 69.0
8.659000 5.605000 -0.558000 52.0 51.0 61.0
8.620000 5.618000 -0.557000 29.0 35.0 46.0
8.568000 5.603000 -0.553000 34.0 37.0 38.0
8.508000 5.603000 -0.549000 63.0 66.0 70.0
8.471000 5.616000 -0.547000 74.0 74.0 74.0
8.405000 5.610000 -0.543000 83.0 81.0 81.0
8.359000 5.618000 -0.541000 85.0 85.0 88.0
8.309000 5.621000 -0.538000 81.0 86.0 89.0
8.263000 5.628000 -0.535000 86.0 86.0 92.0
8.201000 5.624000 -0.531000 86.0 90.0 93.0
8.163000 5.616000 -0.528000 90.0 87.0 95.0
8.120000 5.625000 -0.526000 86.0 88.0 93.0
8.059000 5.619000 -0.522000 92.0 90.0 96.0
8.021000 5.631000 -0.521000 86.0 87.0 100.0
7.971000 5.633000 -0.518000 85.0 86.0 90.0
7.923000 5.636000 -0.515000 85.0 86.0 89.0
7.885000 5.647000 -0.513000 84.0 85.0 92.0
7.843000 5.635000 -0.510000 82.0 86.0 90.0
7.793000 5.636000 -0.507000 83.0 85.0 89.0
7.749000 5.641000 -0.505000 86.0 86.0 91.0
7.712000 5.651000 -0.503000 85.0 84.0 92.0
7.657000 5.648000 -0.500000 85.0 87.0 91.0
7.619000 5.657000 -0.498000 83.0 82.0 92.0
7.586000 5.651000 -0.495000 81.0 83.0 92.0
7.540000 5.653000 -0.493000 84.0 84.0 91.0
7.492000 5.654000 -0.490000 83.0 83.0 86.0
7.448000 5.658000 -0.488000 85.0 85.0 90.0
7.404000 5.661000 -0.485000 83.0 82.0 95.0
7.372000 5.673000 -0.484000 79.0 83.0 88.0
7.319000 5.669000 -0.481000 76.0 76.0 86.0
7.299000 5.672000 -0.480000 77.0 77.0 85.0
7.239000 5.661000 -0.476000 81.0 74.0 80.0
7.199000 5.667000 -0.474000 70.0 68.0 85.0
7.154000 5.667000 -0.471000 63.0 68.0 87.0
7.123000 5.680000 -0.470000 51.0 66.0 83.0
7.068000 5.672000 -0.466000 48.0 59.0 80.0
7.041000 5.686000 -0.465000 43.0 63.0 77.0
7.000000 5.671000 -0.462000 49.0 64.0 77.0
6.963000 5.678000 -0.460000 50.0 64.0 73.0
6.922000 5.681000 -0.458000 54.0 62.0 73.0
6.881000 5.683000 -0.456000 59.0 64.0 70.0
7.814000 -6.409000 -0.543000 13.0 15.0 13.0
9.228000 -7.514000 -0.675000 13.0 11.0 11.0
9.351000 -7.445000 -0.679000 25.0 23.0 19.0
9.379000 -7.419000 -0.680000 21.0 21.0 17.0
6.320000 -4.978000 -0.391000 35.0 29.0 31.0
6.318000 -4.945000 -0.390000 37.0 40.0 28.0
6.522000 -5.070000 -0.407000 15.0 18.0 15.0
4.863000 -3.765000 -0.252000 20.0 15.0 22.0
4.835000 -3.730000 -0.248000 20.0 24.0 33.0
4.859000 -3.725000 -0.249000 14.0 20.0 17.0
9.630000 -7.303000 -0.689000 25.0 18.0 15.0
5.075000 -3.839000 -0.267000 11.0 10.0 13.0
5.019000 -3.772000 -0.261000 11.0 12.0 11.0
4.376000 -3.272000 -0.201000 26.0 17.0 17.0
4.298000 -3.193000 -0.193000 25.0 19.0 17.0
4.307000 -3.178000 -0.193000 28.0 18.0 17.0
4.289000 -3.155000 -0.191000 27.0 18.0 18.0
4.309000 -3.149000 -0.192000 28.0 20.0 17.0
4.314000 -3.132000 -0.191000 29.0 20.0 16.0
4.302000 -3.103000 -0.189000 28.0 18.0 18.0
4.307000 -3.086000 -0.189000 27.0 20.0 17.0
4.309000 -3.067000 -0.188000 25.0 19.0 16.0
4.297000 -3.049000 -0.187000 26.0 17.0 13.0
4.305000 -3.034000 -0.186000 13.0 13.0 15.0
4.316000 -3.021000 -0.187000 16.0 17.0 17.0
4.318000 -3.002000 -0.186000 15.0 15.0 17.0
4.317000 -2.982000 -0.185000 16.0 17.0 14.0
4.325000 -2.967000 -0.185000 16.0 17.0 11.0
4.337000 -2.956000 -0.185000 17.0 16.0 14.0
4.342000 -2.949000 -0.185000 18.0 15.0 15.0
4.360000 -2.941000 -0.186000 15.0 14.0 12.0
4.360000 -2.922000 -0.185000 17.0 15.0 17.0
4.400000 -2.928000 -0.188000 18.0 16.0 17.0
4.409000 -2.914000 -0.188000 13.0 14.0 15.0
4.428000 -2.907000 -0.189000 16.0 15.0 16.0
4.455000 -2.905000 -0.190000 16.0 15.0 17.0
4.460000 -2.898000 -0.190000 11.0 17.0 18.0
4.491000 -2.897000 -0.192000 13.0 18.0 18.0
4.529000 -2.901000 -0.195000 17.0 17.0 21.0
4.538000 -2.887000 -0.195000 12.0 18.0 25.0
4.550000 -2.875000 -0.195000 16.0 19.0 24.0
4.588000 -2.879000 -0.197000 46.0 20.0 19.0
4.619000 -2.878000 -0.199000 57.0 37.0 27.0
4.625000 -2.861000 -0.199000 25.0 27.0 21.0
4.673000 -2.881000 -0.203000 18.0 16.0 13.0
4.700000 -2.877000 -0.204000 18.0 17.0 15.0
4.753000 -2.889000 -0.208000 30.0 29.0 32.0
4.822000 -2.909000 -0.213000 19.0 19.0 19.0
5.895000 -3.525000 -0.304000 52.0 49.0 51.0
10.865000 -6.379000 -0.727000 68.0 71.0 74.0
10.647000 -6.229000 -0.707000 68.0 69.0 73.0
5.282000 -3.084000 -0.249000 31.0 32.0 33.0
5.278000 -3.059000 -0.248000 32.0 33.0 33.0
9.582000 -5.449000 -0.611000 127.0 116.0 99.0
9.540000 -5.386000 -0.606000 180.0 171.0 112.0
6.281000 -3.530000 -0.329000 60.0 58.0 53.0
6.337000 -3.549000 -0.334000 65.0 63.0 46.0
9.732000 -5.393000 -0.618000 108.0 100.0 53.0
6.412000 -3.537000 -0.338000 15.0 73.0 76.0
6.443000 -3.528000 -0.340000 37.0 31.0 49.0
6.480000 -3.522000 -0.342000 105.0 98.0 67.0
